# .PCD v0.7 - Point Cloud Data file format
VERSION 0.7
FIELDS x y z
SIZE 4 4 4
TYPE F F F
COUNT 1 1 1
WIDTH 1475
HEIGHT 1
VIEWPOINT 0 0 0 1 0 0 0
POINTS 1475
DATA ascii
0.15372899 0.044535749 0.4358125
0.15516299 0.045019701 0.4354375
0.1571385 0.044987399 0.43512499
0.15927766 0.045300502 0.43479165
0.16113999 0.045460172 0.43465623
0.16322501 0.045460176 0.43465626
0.16526276 0.045447074 0.43453124
0.1672505 0.045420922 0.43428126
0.153707 0.046619803 0.43575001
0.15515199 0.046583027 0.43540627
0.157116 0.046546299 0.43506253
0.15894534 0.046695501 0.43483332
0.16112849 0.047020599 0.434625
0.163213 0.047020599 0.434625
0.165227 0.047000349 0.43443751
0.16721451 0.046973303 0.4341875
0.153751 0.048724048 0.435875
0.15519625 0.0486857 0.43553126
0.157184 0.048654225 0.43524998
0.15916875 0.048622824 0.43496877
0.16118599 0.048601851 0.43478125
0.16320126 0.048580825 0.43459377
0.16519099 0.048552848 0.43434376
0.166694 0.048535351 0.4341875
0.15319476 0.050803978 0.43578124
0.15518525 0.050771225 0.4355
0.15717275 0.050738454 0.43521875
0.15915725 0.050705649 0.43493751
0.16117451 0.050683774 0.43474999
0.163166 0.050654724 0.43449998
0.16495034 0.050442267 0.43416667
0.1511475 0.052909698 0.43590626
0.15311775 0.052867949 0.43556252
0.1551185 0.052837599 0.43531251
0.15707099 0.052792076 0.43493751
0.159089 0.052769326 0.43474999
0.16112849 0.052754249 0.434625
0.16310725 0.052719999 0.43434376
0.16458701 0.05269355 0.43412501
0.1511365 0.0549969 0.435875
0.153052 0.054933824 0.43537501
0.1550515 0.0549022 0.43512499
0.15703724 0.05486675 0.43484375
0.15905499 0.054843076 0.43465623
0.16112849 0.054839149 0.434625
0.16310725 0.054803751 0.43434376
0.16458701 0.054776102 0.43412501
0.14961199 0.0571042 0.43599999
0.15108275 0.057067346 0.43571874
0.15298599 0.056997802 0.43518752
0.155007 0.056973249 0.435
0.15699224 0.056936372 0.43471876
0.15903224 0.056919999 0.43459374
0.161082 0.056907676 0.43450001
0.16308375 0.056879051 0.43428126
0.14752001 0.059718601 0.43599999
0.14903525 0.0591745 0.43584377
0.15103926 0.059140574 0.43559375
0.15297499 0.059081152 0.43515626
0.15499575 0.059055701 0.43496877
0.15699224 0.059021749 0.43471876
0.158998 0.058992103 0.43450001
0.161036 0.058975149 0.43437499
0.16306049 0.058953874 0.43421876
0.14695498 0.061269648 0.435875
0.14893901 0.061225697 0.43556249
0.15094176 0.061190575 0.43531251
0.15294224 0.061155427 0.43506253
0.15496226 0.061129078 0.43487501
0.156958 0.061094023 0.434625
0.1589635 0.061063226 0.43440622
0.16098925 0.061041228 0.43425
0.162505 0.061023749 0.43412501
0.14505233 0.063540936 0.43591666
0.1468495 0.063315175 0.43556249
0.14883199 0.063269727 0.43525001
0.15086599 0.06324707 0.43509373
0.1528765 0.0632153 0.43487501
0.154907 0.063192524 0.43471873
0.156913 0.063160703 0.43450001
0.1589175 0.063128948 0.43428123
0.160943 0.0625856 0.43412501
0.141165 0.0659554 0.43575001
0.142722 0.065428026 0.43571874
0.14477074 0.065409258 0.43559375
0.14677548 0.065371796 0.43534377
0.1487895 0.065338954 0.43512499
0.15084425 0.065324843 0.43503124
0.15284351 0.065287329 0.43478125
0.15485099 0.065254495 0.4345625
0.15687925 0.065231003 0.43440625
0.15889449 0.065202877 0.43421873
0.139154 0.067038998 0.43599999
0.14066249 0.067010194 0.4358125
0.14267099 0.066971749 0.43556249
0.14473951 0.066962101 0.4355
0.146744 0.067445695 0.43525001
0.1487895 0.067426354 0.43512499
0.150812 0.067397274 0.43493748
0.15282151 0.067363352 0.43471876
0.15481775 0.067324601 0.43446875
0.15684551 0.067300424 0.43431252
0.15888301 0.067281052 0.43418747
0.13879199 0.068775408 0.4359583
0.1406015 0.06854865 0.43562499
0.14264025 0.068524048 0.43546876
0.144729 0.068524055 0.43546873
0.146744 0.069011703 0.43525001
0.1487895 0.068991803 0.43512499
0.15097867 0.0693065 0.43491665
0.1528105 0.069443777 0.4346875
0.15482901 0.069413796 0.43450001
0.15684551 0.069383875 0.43431249
0.15889451 0.069368951 0.43421876
0.160943 0.069353901 0.43412501
0.137023 0.071201697 0.435875
0.1385715 0.070668824 0.4358125
0.14056101 0.070618153 0.4355
0.14258926 0.07058765 0.43531251
0.14469776 0.070597798 0.43537501
0.14673349 0.070572503 0.43521878
0.1487685 0.070547223 0.4350625
0.15064533 0.07070417 0.43495834
0.1528105 0.071007699 0.4346875
0.154829 0.070977099 0.43450001
0.15684551 0.071467303 0.43431249
0.158906 0.071456999 0.43425
0.160943 0.07143645 0.43412501
0.137023 0.072769895 0.435875
0.13856149 0.072754249 0.43578124
0.14056101 0.072707295 0.4355
0.14256901 0.07266555 0.43525001
0.144656 0.07266555 0.43525001
0.1466915 0.072639421 0.43509376
0.14873624 0.072618552 0.43496877
0.1507905 0.07260295 0.43487501
0.1528105 0.07257165 0.4346875
0.154829 0.07254035 0.43450001
0.15684551 0.073029906 0.43431249
0.15888301 0.073008895 0.4341875
0.137062 0.074882299 0.43599999
0.1385715 0.074850127 0.4358125
0.14056101 0.074796423 0.4355
0.14256901 0.074753501 0.43525001
0.144656 0.074753501 0.43525001
0.14666 0.074710555 0.435
0.14869374 0.074683703 0.43484375
0.1507905 0.074689105 0.43487501
0.1527995 0.07465148 0.43465626
0.15482901 0.074624702 0.43450001
0.15684551 0.074592471 0.43431249
0.15834001 0.074560255 0.43412501
0.137062 0.076973855 0.43599999
0.1385515 0.076929629 0.43575001
0.140551 0.076880023 0.43546873
0.14253774 0.076824851 0.43515626
0.14461476 0.076819301 0.43512499
0.14663899 0.076786272 0.43493751
0.14866149 0.076753199 0.43474999
0.15075776 0.076758668 0.43478125
0.15278849 0.076731101 0.434625
0.154829 0.076709002 0.43450001
0.15684551 0.076675922 0.43431252
0.15834001 0.076642856 0.43412501
0.137062 0.079065397 0.43599999
0.13853151 0.079008698 0.43568748
0.14051074 0.07894633 0.43534377
0.14251724 0.078901 0.43509373
0.14457351 0.07888405 0.435
0.14659651 0.078850023 0.43481249
0.14866151 0.078838699 0.43474999
0.1507145 0.078821674 0.43465626
0.1527665 0.078804724 0.4345625
0.154829 0.078793399 0.43450001
0.15682276 0.078747973 0.43425
0.15834001 0.078204699 0.43412501
0.137345 0.081292301 0.43579164
0.13921101 0.080963954 0.435525
0.1414635 0.080982424 0.4350625
0.142967 0.080947548 0.43487501
0.1445525 0.080959179 0.43493748
0.14660725 0.080941774 0.43484375
0.14866149 0.08092425 0.43474999
0.15070349 0.080900997 0.434625
0.1527665 0.080889344 0.4345625
0.15478399 0.080854446 0.43437499
0.1568 0.080819577 0.4341875
0.13718478 0.083300479 0.43572503
0.13946675 0.083123147 0.43534377
0.141443 0.083057523 0.435
0.142967 0.083033651 0.43487501
0.1445315 0.083033651 0.43487501
0.14659676 0.083021656 0.43481249
0.14866149 0.083009802 0.43474999
0.15069249 0.082979947 0.43459374
0.15272251 0.082950152 0.43443751
0.154773 0.082932204 0.43434376
0.156634 0.082732797 0.4342083
0.135978 0.085315555 0.435875
0.13744751 0.085254379 0.43556249
0.13945699 0.085205428 0.43531251
0.141433 0.085138127 0.43496877
0.143301 0.085285433 0.43483332
0.14467801 0.084929638 0.43479165
0.14657551 0.085095301 0.43474999
0.14864001 0.085083075 0.4346875
0.15066001 0.085046403 0.43450001
0.15270099 0.085021958 0.43437499
0.15473975 0.084997401 0.43425
0.156257 0.084973 0.43412501
0.13595849 0.08739385 0.4358125
0.13740775 0.087318674 0.4354375
0.13942675 0.087274857 0.43521878
0.14141275 0.087212175 0.43490624
0.14344749 0.087180898 0.43474999
0.14499101 0.087168299 0.4346875
0.1465545 0.087168299 0.4346875
0.14861849 0.087155744 0.434625
0.15063849 0.087118201 0.43443751
0.15268975 0.087099351 0.43434373
0.15470651 0.087061778 0.43415627
0.135387 0.089452326 0.43565625
0.13734901 0.089369103 0.43525001
0.13937649 0.089330494 0.43506247
0.14138201 0.089279249 0.43481249
0.143406 0.089240752 0.434625
0.14497 0.089240752 0.434625
0.146523 0.0892343 0.43459374
0.14857599 0.0892151 0.43450001
0.15061675 0.08918938 0.43437499
0.1526565 0.089163706 0.43425
0.1546955 0.089138106 0.43412501
0.13548666 0.09131787 0.4354167
0.137329 0.091443904 0.43518752
0.13934651 0.091397904 0.43496877
0.14137201 0.091358528 0.43478122
0.14342649 0.091338851 0.4346875
0.14530332 0.091490626 0.43458334
0.14667933 0.091134466 0.43454167
0.14857599 0.091299452 0.43450001
0.15059501 0.091260031 0.43431252
0.1526235 0.091227174 0.43415627
0.1546955 0.091220655 0.43412501
0.13392501 0.092660397 0.43599999
0.13520335 0.092754759 0.43562499
0.13732901 0.093009651 0.43518752
0.13950366 0.093299426 0.43491665
0.14135201 0.09343075 0.43471873
0.143406 0.093410656 0.434625
0.1454595 0.09339048 0.43453124
0.14701299 0.093383804 0.43450001
0.148533 0.093356848 0.43437499
0.15056276 0.093323298 0.43421873
0.15261251 0.092782602 0.43412501
0.154175 0.092782602 0.43412501
0.1338865 0.094724655 0.435875
0.13531899 0.09462963 0.4354375
0.13732901 0.094575346 0.43518752
0.139156 0.094690301 0.43491665
0.14134201 0.094988048 0.4346875
0.143406 0.094974399 0.434625
0.14560866 0.095285237 0.43445835
0.14699149 0.095454305 0.43443751
0.1485115 0.095426925 0.43431252
0.15001 0.094865099 0.43412501
0.1333255 0.09678787 0.43575001
0.13528974 0.096697673 0.43534377
0.137309 0.096649155 0.43512499
0.1392965 0.096579701 0.43481249
0.14134201 0.096551925 0.4346875
0.143406 0.096538052 0.434625
0.14527534 0.096683897 0.43450001
0.14747 0.09698955 0.43431249
0.149011 0.096975602 0.43425
0.13328749 0.098849922 0.43562502
0.13527049 0.098771974 0.43528128
0.137309 0.098736472 0.43512499
0.1392965 0.098665573 0.43481249
0.14136201 0.098651402 0.43474999
0.143406 0.098623052 0.434625
0.145428 0.09858045 0.43443751
0.14747 0.098552078 0.43431252
0.1489895 0.098523647 0.4341875
0.131834 0.101549 0.43599999
0.13332549 0.1009685 0.43575001
0.13530925 0.100889 0.43540627
0.137309 0.100824 0.43512502
0.1393265 0.10077325 0.43490624
0.14137201 0.10074425 0.43478122
0.143406 0.10070801 0.434625
0.145428 0.1006645 0.43443751
0.14747001 0.1006355 0.43431249
0.1489895 0.1006065 0.4341875
0.15001 0.101113 0.43412501
0.131311 0.103118 0.43599999
0.1333445 0.10307375 0.4358125
0.13531899 0.102985 0.4354375
0.13732901 0.102926 0.43518749
0.13935649 0.10288151 0.435
0.14138201 0.10283725 0.43481249
0.14342649 0.10280775 0.4346875
0.14543849 0.10275599 0.43446875
0.14731766 0.10256001 0.43437502
0.148678 0.10288767 0.43429169
0.15056275 0.10269675 0.43421873
0.15261251 0.103195 0.43412501
0.12939332 0.10538433 0.43599999
0.131311 0.10521 0.43599999
0.1333445 0.1051645 0.43581247
0.1353385 0.10508925 0.4355
0.13732901 0.10501375 0.43518752
0.13937649 0.1049835 0.43506247
0.14139225 0.104931 0.43484375
0.14342649 0.104893 0.4346875
0.145449 0.10484774 0.43450001
0.14697 0.10481749 0.43437499
0.1485115 0.1048025 0.43431252
0.15057349 0.1047875 0.43425
0.15261249 0.1047575 0.43412501
0.1271275 0.107824 0.43599999
0.129219 0.107301 0.43599999
0.13128251 0.107278 0.43590623
0.13333499 0.10724725 0.43578124
0.13534825 0.1071855 0.43553126
0.13732901 0.10710151 0.43518752
0.13936649 0.10706275 0.43503124
0.14138201 0.10700901 0.43481249
0.14341624 0.1069705 0.43465623
0.145449 0.106932 0.43449998
0.14699149 0.1069165 0.43443751
0.1485115 0.10688575 0.43431249
0.15057349 0.1068705 0.43425
0.15209199 0.106319 0.43412501
0.125559 0.109916 0.43599999
0.1271275 0.109393 0.43599999
0.12939332 0.10956734 0.43599999
0.13126349 0.10935375 0.43584377
0.1333065 0.10931425 0.43568751
0.13528974 0.10922825 0.43534377
0.13729899 0.1091655 0.43509376
0.1393165 0.10911025 0.43487501
0.141372 0.109087 0.43478125
0.143406 0.1090475 0.434625
0.145428 0.1090005 0.43443751
0.14747 0.10896926 0.43431249
0.149011 0.10895351 0.43425
0.15038566 0.10876968 0.4342083
0.125559 0.110961 0.43599999
0.12728967 0.111299 0.4359583
0.12917274 0.1114445 0.43584377
0.1311975 0.1113885 0.43562499
0.13323024 0.1113405 0.4354375
0.13525125 0.1112845 0.43521878
0.13725001 0.1112125 0.43493751
0.1392765 0.1111645 0.43474999
0.14133176 0.1111405 0.43465623
0.1433855 0.11111674 0.4345625
0.14541775 0.111077 0.43440622
0.147449 0.111037 0.43425
0.1489895 0.1110205 0.4341875
0.15001 0.110484 0.43412501
0.12694134 0.11269367 0.4359583
0.12914449 0.1129885 0.43575001
0.13115075 0.1134375 0.43546876
0.133192 0.1133965 0.43531251
0.13521224 0.11333975 0.43509376
0.1372205 0.1132745 0.43484375
0.13926649 0.11324225 0.43471873
0.14132151 0.1132175 0.434625
0.1433855 0.11320125 0.4345625
0.145376 0.113128 0.43428123
0.14723301 0.112914 0.43412504
0.12727767 0.11477366 0.43591666
0.12913525 0.11454751 0.43571874
0.1311415 0.11499549 0.4354375
0.1331825 0.11547625 0.43528128
0.13521224 0.11542675 0.43509376
0.1372105 0.115352 0.43481249
0.13925651 0.11531899 0.4346875
0.14132151 0.1153025 0.434625
0.14335476 0.115261 0.43446875
0.14535499 0.11519475 0.43421876
0.14688601 0.11517 0.43412501
0.12519833 0.11687601 0.4359583
0.12704551 0.11663775 0.43571874
0.129071 0.11657925 0.4355
0.13111299 0.1165375 0.43534374
0.133173 0.117034 0.43525001
0.1352025 0.11698399 0.4350625
0.13737766 0.117259 0.43479165
0.13925651 0.1174045 0.4346875
0.14132151 0.1173875 0.434625
0.14334451 0.117337 0.43443751
0.1453445 0.11726925 0.43418747
0.14688601 0.116732 0.43412501
0.125009 0.11877925 0.43590626
0.127 0.1186855 0.43556249
0.12905249 0.11865125 0.4354375
0.13108501 0.1186 0.43525001
0.133154 0.11858299 0.43518752
0.1352025 0.118549 0.4350625
0.13708268 0.11869466 0.43495834
0.13942367 0.11931 0.43466666
0.14132151 0.1194725 0.434625
0.14334451 0.119421 0.43443751
0.14536551 0.11936949 0.43425
0.14688601 0.118814 0.43412501
0.1234495 0.1208785 0.43593749
0.12496425 0.12082675 0.43574998
0.126973 0.12074875 0.43546873
0.129034 0.12072299 0.43537501
0.13110375 0.1207055 0.43531251
0.13314399 0.12066225 0.43515626
0.13519275 0.12062775 0.43503124
0.13724026 0.120593 0.43490624
0.13908933 0.12071166 0.43470833
0.14132151 0.121036 0.434625
0.14334451 0.120984 0.43443751
0.145355 0.12144375 0.43421876
0.123397 0.1229175 0.43575001
0.1249465 0.12289975 0.43568748
0.12693626 0.1228025 0.43534374
0.12898774 0.12276725 0.43521875
0.1310755 0.12276725 0.43521878
0.13314399 0.12274975 0.43515626
0.13518301 0.1227055 0.435
0.1372105 0.12265299 0.43481249
0.13925651 0.12261775 0.4346875
0.14128101 0.12256499 0.43450001
0.14333425 0.122538 0.43440622
0.1453445 0.122997 0.4341875
0.12309533 0.12522967 0.43591666
0.12495551 0.12499851 0.43571874
0.126909 0.124864 0.43525001
0.12896 0.124828 0.43512499
0.131047 0.124828 0.43512499
0.1331345 0.124828 0.43512499
0.13516375 0.1247745 0.43493751
0.1372105 0.1247385 0.43481249
0.13924626 0.12469375 0.43465623
0.1412605 0.124631 0.43443751
0.14330325 0.124595 0.43431249
0.145164 0.12437966 0.43416667
0.12291826 0.1271435 0.43590623
0.12496451 0.12709749 0.43575001
0.126927 0.12697025 0.43531251
0.12896 0.1269155 0.43512499
0.1310285 0.12689725 0.43506247
0.13308701 0.12686999 0.43496877
0.135086 0.12678799 0.43468753
0.13716125 0.12677899 0.43465626
0.13920599 0.12674224 0.43453124
0.1412095 0.1266695 0.43428126
0.143262 0.12612149 0.4341875
0.144803 0.126103 0.43412501
0.1234145 0.129207 0.4358125
0.12497325 0.12919775 0.43578124
0.12693626 0.12906775 0.43534377
0.12892249 0.128966 0.435
0.13100949 0.128966 0.435
0.133039 0.12890999 0.43481249
0.13502775 0.12881775 0.43450001
0.13708225 0.12879024 0.43440628
0.13911599 0.1287435 0.43425
0.14063799 0.128186 0.43412501
0.12311867 0.13152833 0.43599999
0.124982 0.13129725 0.4358125
0.1269545 0.131175 0.43540627
0.12893175 0.131062 0.43503124
0.13098125 0.13102426 0.43490624
0.13298124 0.1309395 0.434625
0.1349695 0.13084501 0.43431252
0.13702326 0.13081725 0.43421873
0.138556 0.13026799 0.43412501
0.119284 0.133968 0.43599999
0.121376 0.133968 0.43599999
0.12293575 0.13343599 0.43596876
0.12497325 0.13337851 0.43578124
0.1269635 0.13327324 0.4354375
0.128941 0.13315849 0.4350625
0.13093451 0.1330625 0.43474999
0.1328955 0.1329385 0.43434376
0.13475032 0.13271068 0.43416667
0.13682 0.132698 0.43412504
0.1229445 0.135014 0.43599999
0.12496451 0.1354595 0.43575001
0.1269545 0.13535251 0.43540624
0.128941 0.1352455 0.4350625
0.13093451 0.1351485 0.43474999
0.13291451 0.13504174 0.43440622
0.13494024 0.13498326 0.43421873
0.13682 0.13512766 0.43412504
0.1229445 0.136583 0.43599999
0.12496451 0.137027 0.43575001
0.1269455 0.13743125 0.43537501
0.128941 0.1373325 0.4350625
0.130953 0.13725376 0.43481249
0.1329525 0.137165 0.43453124
0.1349695 0.13709575 0.43431252
0.13701299 0.13705625 0.4341875
0.12101567 0.138835 0.4359583
0.12290075 0.13862425 0.43584377
0.1249195 0.13854524 0.43559375
0.126927 0.138978 0.43531251
0.128904 0.1393795 0.43493748
0.13093451 0.13931951 0.43474999
0.13294299 0.139239 0.43450001
0.1349695 0.13917899 0.43431252
0.13701299 0.13913925 0.43418747
0.119284 0.141289 0.43599999
0.1208185 0.14072549 0.435875
0.1228385 0.14064474 0.43562499
0.12485699 0.14056399 0.43537501
0.126918 0.140534 0.43528125
0.128904 0.14094451 0.43493751
0.13093451 0.141405 0.43474999
0.13294299 0.141324 0.43450001
0.1349695 0.14126275 0.43431252
0.13700324 0.14121175 0.43415624
0.119267 0.1428365 0.43593749
0.120775 0.14276525 0.43571872
0.1227855 0.142673 0.4354375
0.12483899 0.14263201 0.43531251
0.126909 0.142612 0.43525001
0.12892249 0.1425295 0.435
0.130953 0.1429895 0.43481249
0.13296199 0.14342874 0.4345625
0.13495 0.14332551 0.43425
0.136473 0.1432845 0.43412501
0.11870199 0.14487599 0.43578124
0.1206885 0.14475125 0.43540624
0.122698 0.144658 0.43512499
0.12477624 0.14464751 0.43509376
0.12688151 0.1446685 0.43515626
0.12892249 0.1446165 0.435
0.130953 0.14455399 0.43481249
0.13307868 0.14527667 0.43437496
0.13439 0.1453665 0.43412501
0.11868501 0.14694574 0.43571872
0.12068 0.14682999 0.43537501
0.12268 0.14672451 0.4350625
0.1247495 0.14670351 0.435
0.12684526 0.14671402 0.43503124
0.12888551 0.14666125 0.43487501
0.13091549 0.14659774 0.4346875
0.132744 0.14668 0.43441665
0.1187105 0.14906776 0.43581247
0.12070575 0.14895025 0.43546873
0.12267125 0.14880075 0.43503127
0.12471351 0.1487475 0.43487501
0.12679049 0.14873675 0.43484375
0.12883925 0.14869376 0.43471873
0.13091549 0.148683 0.4346875
0.13290501 0.14857624 0.43437499
0.11891299 0.15102033 0.43591666
0.12072299 0.151061 0.43553126
0.1226445 0.15085499 0.43493748
0.12465975 0.1507685 0.4346875
0.12672651 0.15074649 0.434625
0.12878375 0.15071374 0.43453127
0.13087775 0.1507245 0.4345625
0.13290501 0.15065975 0.43437499
0.12078351 0.15322725 0.43574998
0.12263575 0.1529305 0.43490624
0.12464201 0.15283149 0.434625
0.126672 0.15276599 0.43443748
0.12873751 0.152744 0.43437499
0.13084 0.15276599 0.43443751
0.13288599 0.15272175 0.43431252
0.11890167 0.155536 0.43587503
0.1207405 0.15526174 0.43559375
0.12265325 0.15503874 0.43496874
0.124633 0.15490524 0.43459377
0.126672 0.1548495 0.43443751
0.128719 0.154805 0.43431249
0.13079301 0.15479401 0.43428126
0.13286699 0.15478301 0.43425
0.1186935 0.15740749 0.43575001
0.120732 0.15733999 0.43556249
0.122662 0.15713675 0.435
0.124633 0.15699026 0.43459374
0.126672 0.1569335 0.43443751
0.128719 0.1568885 0.43431252
0.1307835 0.156866 0.43425
0.1328475 0.15684325 0.43418747
0.115101 0.159067 0.43599999
0.11683299 0.158703 0.4359583
0.118651 0.15944101 0.43559375
0.1207145 0.15940651 0.4355
0.12267125 0.15923475 0.43503127
0.1246595 0.1591095 0.4346875
0.126672 0.15901801 0.43443751
0.12869126 0.15893751 0.43421873
0.13075525 0.15891474 0.43415624
0.13232701 0.15892601 0.4341875
0.11399 0.161066 0.43575001
0.11470833 0.1604 0.43583333
0.1166738 0.1608108 0.43562502
0.11857399 0.16142601 0.43531251
0.12065375 0.1614145 0.43528128
0.1226625 0.16131075 0.435
0.1246685 0.16120626 0.43471876
0.12665375 0.16107875 0.43437499
0.12867275 0.16099751 0.43415624
0.13057233 0.16081233 0.43412504
0.113957 0.162587 0.43562499
0.115035 0.16263351 0.43575001
0.116373 0.16273001 0.43554166
0.11855701 0.16296899 0.43525001
0.12079567 0.16328566 0.43516669
0.12261826 0.1633385 0.43484375
0.124606 0.16320901 0.43450001
0.12661749 0.16311525 0.43425
0.128143 0.1630685 0.43412501
0.11399 0.16420101 0.43575001
0.11469766 0.164914 0.43579164
0.116569 0.16467676 0.43562502
0.118574 0.1645585 0.43531251
0.12043633 0.16466166 0.43512499
0.122592 0.16538849 0.43474999
0.124579 0.16525799 0.43440625
0.12659949 0.16517475 0.4341875
0.114529 0.16683824 0.4358125
0.116569 0.16676649 0.43562502
0.118591 0.16667075 0.43537501
0.120593 0.16655125 0.4350625
0.1225745 0.16745025 0.4346875
0.124561 0.16731775 0.43434373
0.12675466 0.16706 0.43412504
0.1145615 0.1689775 0.43593746
0.11659449 0.1688925 0.43571874
0.1185995 0.16877149 0.43540627
0.1205755 0.168614 0.435
0.122719 0.16932066 0.43458334
0.124534 0.16936499 0.43425
0.12675466 0.16948967 0.43412504
0.1135 0.17156699 0.435875
0.11469734 0.17083667 0.43579164
0.11655276 0.1709215 0.43556249
0.1185655 0.170811 0.43528125
0.12053251 0.17063926 0.43484372
0.12237167 0.170711 0.43458334
0.12470767 0.17127432 0.43425
0.126581 0.17139851 0.43412501
0.128143 0.17139849 0.43412501
0.109872 0.17370801 0.43599999
0.11139325 0.17311001 0.4358125
0.1134105 0.1729985 0.43553126
0.11544175 0.17291149 0.43531251
0.1169745 0.17286199 0.43518752
0.11900466 0.17277934 0.43497917
0.121514 0.17263874 0.434625
0.123025 0.172564 0.43443751
0.12436033 0.17266299 0.43425
0.126581 0.172961 0.43412501
0.10743234 0.17545033 0.43599999
0.109326 0.17523825 0.43590623
0.11131325 0.17507525 0.4355
0.1133455 0.17498726 0.43528125
0.11538376 0.17491201 0.43509373
0.1174285 0.17484951 0.43493748
0.11943775 0.17473574 0.43465626
0.1214355 0.17461026 0.43434376
0.12329533 0.17436565 0.43416667
0.107781 0.177368 0.43599999
0.10931 0.17730451 0.43584374
0.11128899 0.17712624 0.43540627
0.11328875 0.1769865 0.4350625
0.11533375 0.17692299 0.43490624
0.11737 0.17684676 0.43471876
0.11936075 0.17670676 0.43437499
0.12121266 0.17644833 0.43416667
0.1077655 0.17943349 0.43593749
0.10927875 0.17934351 0.43571874
0.111257 0.17916374 0.43528128
0.113256 0.179022 0.43493751
0.115309 0.1789705 0.43481249
0.1173275 0.17886776 0.4345625
0.1193265 0.178739 0.43425
0.120854 0.178167 0.43412501
0.10775 0.180976 0.435875
0.10927875 0.1814335 0.43571874
0.11125699 0.181252 0.43528125
0.1132725 0.18113449 0.435
0.11530075 0.18104351 0.43478125
0.11731051 0.18092625 0.43450001
0.11912999 0.18061365 0.43416667
0.10775 0.1825445 0.435875
0.1092865 0.183015 0.43575001
0.111265 0.18335299 0.43531251
0.113297 0.18326099 0.43509373
0.11530075 0.18312901 0.43478125
0.11729351 0.18298423 0.43443751
0.118771 0.18285251 0.43412501
0.107391 0.184792 0.43583333
0.10927875 0.18456927 0.43571874
0.111265 0.185441 0.43531251
0.113305 0.185361 0.43512499
0.11531725 0.18524125 0.43484375
0.117302 0.18508175 0.43446875
0.11930075 0.18494874 0.43415627
0.120854 0.18545599 0.43412501
0.10721175 0.18669926 0.4358125
0.1092395 0.18659225 0.43556249
0.11141232 0.18731 0.43520835
0.1132725 0.1873945 0.435
0.115309 0.18731375 0.43481249
0.1173105 0.18717927 0.43449998
0.11934376 0.1870985 0.43431252
0.121392 0.1870445 0.4341875
0.122936 0.187538 0.43412501
0.105689 0.188871 0.43599999
0.107181 0.18873575 0.43568748
0.10923176 0.188668 0.43553126
0.11106434 0.188702 0.43520835
0.11342433 0.18927133 0.43491665
0.11528425 0.18935876 0.43471876
0.117319 0.18927725 0.43453127
0.119361 0.189209 0.43437499
0.12140951 0.18915474 0.43425
0.122936 0.1891005 0.43412501
0.1051515 0.19093549 0.43593746
0.107181 0.190826 0.43568748
0.10921625 0.19073024 0.43546876
0.11121725 0.1905795 0.43512499
0.1131226 0.19117799 0.434825
0.1152425 0.19137549 0.4345625
0.1173275 0.19137549 0.4345625
0.119361 0.191293 0.43437499
0.12140951 0.19123776 0.43425
0.122954 0.19121 0.4341875
0.105689 0.19305401 0.43599999
0.1071655 0.19288824 0.43562502
0.1091925 0.19277748 0.43537501
0.1111615 0.19257 0.43490624
0.11334834 0.193314 0.434625
0.11521775 0.19341823 0.43446875
0.1172855 0.19339076 0.43440622
0.11935225 0.193363 0.43434373
0.12140074 0.19330725 0.43421876
0.122936 0.192745 0.43412501
0.10717325 0.19499199 0.43565625
0.10918475 0.19485201 0.43534374
0.11112151 0.1945865 0.43474999
0.11300067 0.19470434 0.434625
0.1151765 0.19543201 0.43431252
0.11724301 0.19540399 0.43425
0.11930075 0.195362 0.43415624
0.120854 0.19482701 0.43412501
0.105689 0.19723749 0.43599999
0.10714225 0.19702525 0.43553126
0.10913751 0.19685574 0.43515626
0.1111215 0.19667199 0.43474999
0.113158 0.19658726 0.4345625
0.1151765 0.19699501 0.43431249
0.11740533 0.19729501 0.4342083
0.118771 0.19743049 0.43412501
0.105689 0.198806 0.43599999
0.10717325 0.19917199 0.43565625
0.10914525 0.1989575 0.43518752
0.1111295 0.19877174 0.43478125
0.113142 0.198643 0.43450001
0.1151765 0.1985575 0.43431252
0.117058 0.19868334 0.4342083
0.19967499 -0.15694949 0.43799999
0.19967499 -0.15537401 0.43799999
0.19932465 -0.14521833 0.43799999
0.19757301 -0.142767 0.43799999
0.19909251 -0.143251 0.437875
0.19751699 -0.141151 0.437875
0.19902176 -0.1411 0.43771875
0.19700599 -0.13906026 0.43790627
0.1989505 -0.138951 0.4375625
0.196978 -0.13694024 0.43784374
0.19892201 -0.13683249 0.4375
0.19699199 -0.13484925 0.437875
0.19892201 -0.13473375 0.4375
0.1969215 -0.13270149 0.43771875
0.19869034 -0.13277233 0.43737498
0.195472 -0.13016 0.43799999
0.19666733 -0.13072334 0.43754163
0.19886935 -0.13126068 0.43700001
0.1948915 -0.12854749 0.437875
0.19694202 -0.12927467 0.43737498
0.198838 -0.1291234 0.436625
0.19281849 -0.12699001 0.4379375
0.19491766 -0.12722534 0.43754169
0.19688979 -0.1271234 0.43695003
0.19893375 -0.12732224 0.43637499
0.19283225 -0.12542349 0.43796873
0.19475199 -0.12530725 0.43756253
0.19699033 -0.12506266 0.43670833
0.1988485 -0.1249135 0.43618751
0.024877967 -0.122899 0.43708333
0.0262409 -0.1229095 0.43650001
0.039817199 -0.12228 0.43612501
0.041433901 -0.122421 0.436625
0.043029301 -0.122491 0.43687499
0.044767067 -0.12281633 0.43679166
0.046720348 -0.12307575 0.43709373
0.048834525 -0.12311976 0.43725002
0.050950177 -0.12316375 0.43740624
0.0530333 -0.1231285 0.43728125
0.0550915 -0.1230405 0.43696874
0.057249047 -0.1226485 0.4374375
0.059322 -0.122596 0.43725002
0.061384402 -0.122526 0.43699998
0.063426301 -0.122421 0.436625
0.065474004 -0.122333 0.4363125
0.192846 -0.12333149 0.43799999
0.19479349 -0.1232345 0.43765625
0.19664 -0.1230765 0.43709373
0.199 -0.12291499 0.43652081
0.0231297 -0.12097099 0.4370625
0.024702124 -0.12097075 0.43706247
0.026771776 -0.12084949 0.436625
0.028858099 -0.1202915 0.43650001
0.035673801 -0.120326 0.436625
0.037451167 -0.12077833 0.43700001
0.039401174 -0.12103999 0.43731248
0.040998001 -0.12110899 0.4375625
0.042553999 -0.121582 0.43737501
0.044690549 -0.121686 0.43774998
0.0462786 -0.121721 0.437875
0.055730999 -0.121721 0.437875
0.05729815 -0.1217035 0.43781251
0.059381448 -0.1216685 0.43768752
0.061308932 -0.12132433 0.43770835
0.062708765 -0.12097467 0.43770835
0.064598255 -0.12108275 0.43746874
0.066682503 -0.121057 0.43737501
0.068741247 -0.12098775 0.437125
0.070657 -0.12080133 0.43708333
0.072903752 -0.1204125 0.43693751
0.0743801 -0.120257 0.43637499
0.192846 -0.1212305 0.43799999
0.19472399 -0.12109199 0.4375
0.19668251 -0.12100525 0.43718749
0.19870901 -0.12096225 0.43703124
0.022753267 -0.11855801 0.43654168
0.024712875 -0.11892525 0.43725002
0.026808374 -0.1189165 0.43721873
0.028907876 -0.11892501 0.43725002
0.031009899 -0.11894175 0.43731248
0.033129074 -0.1190185 0.43759376
0.035230801 -0.119552 0.43762499
0.036836699 -0.119654 0.43799999
0.067303203 -0.119654 0.43799999
0.069040902 -0.11928133 0.43791667
0.070949674 -0.119078 0.43781251
0.073008195 -0.11900999 0.43756253
0.07503207 -0.118891 0.437125
0.076866396 -0.11858067 0.436625
0.078521803 -0.118096 0.43612501
0.19126999 -0.118604 0.43799999
0.19277725 -0.1190865 0.43784374
0.19466899 -0.11895925 0.43737501
0.19668251 -0.11890826 0.43718749
0.1987375 -0.11888251 0.43709373
0.015798301 -0.116303 0.43724999
0.017345224 -0.11665174 0.43659377
0.019438449 -0.1161205 0.43656251
0.021005999 -0.116627 0.43650001
0.022602551 -0.11676051 0.43700001
0.024732299 -0.11691925 0.43759376
0.026837248 -0.1174695 0.43768752
0.028949199 -0.11752 0.437875
0.031054251 -0.1175365 0.4379375
0.075707696 -0.117553 0.43799999
0.077228293 -0.1174695 0.43768752
0.079305246 -0.11691075 0.4375625
0.08128801 -0.11674375 0.43693751
0.083288401 -0.116087 0.43643749
0.190745 -0.117028 0.43799999
0.19269451 -0.11693625 0.43765625
0.19466899 -0.116861 0.43737501
0.19672474 -0.11683574 0.43728125
0.19880849 -0.11682725 0.43724999
0.0136929 -0.11414 0.43700001
0.0152718 -0.11471375 0.43718749
0.017371399 -0.11473 0.43725002
0.019284934 -0.11485034 0.43704167
0.020704366 -0.11462033 0.4375
0.022468232 -0.115047 0.43779168
0.081450701 -0.1154025 0.43781251
0.083461374 -0.11475425 0.43734378
0.085260727 -0.114413 0.43670833
0.1907315 -0.11491875 0.43796873
0.19263925 -0.11480375 0.43753123
0.19464125 -0.1147465 0.43731251
0.19672476 -0.11473824 0.43728125
0.19880851 -0.11473 0.43724999
0.0116098 -0.112172 0.4375
0.01317445 -0.11261649 0.43718749
0.015278325 -0.11266449 0.43737501
0.017390151 -0.112753 0.43771875
0.0189662 -0.113286 0.43775001
0.0200276 -0.113351 0.43799999
0.0851385 -0.113319 0.437875
0.086821094 -0.11311525 0.43709376
0.088630356 -0.11255924 0.43696874
0.0901834 -0.112012 0.43687499
0.18860325 -0.11280149 0.43790624
0.190595 -0.11273725 0.43765622
0.19257051 -0.11266474 0.43737501
0.19461349 -0.1126325 0.43724999
0.1966965 -0.1126245 0.43721876
0.19848233 -0.11272133 0.43691668
0.0095083602 -0.110042 0.43737501
0.011085151 -0.1105985 0.4375
0.013184775 -0.110606 0.43753123
0.015114933 -0.11082567 0.43770835
0.0168759 -0.11125 0.43799999
0.089314103 -0.111186 0.43775001
0.090879284 -0.11083619 0.43720001
0.092173502 -0.110837 0.43637499
0.187068 -0.11072449 0.43799999
0.188563 -0.110677 0.43781251
0.190568 -0.110622 0.43759376
0.19261175 -0.1105905 0.43746877
0.19464125 -0.11055075 0.43731248
0.19662599 -0.111012 0.4370625
0.1991542 -0.11126219 0.4364
0.0074165799 -0.108036 0.43775001
0.0089871529 -0.10850699 0.43753126
0.0110924 -0.10856875 0.43778124
0.0131971 -0.1091335 0.4379375
0.091440096 -0.109118 0.437875
0.092878036 -0.10895566 0.43722916
0.0942939 -0.108775 0.43650001
0.184967 -0.108098 0.43799999
0.18669967 -0.10843801 0.43795833
0.18861675 -0.108608 0.4379375
0.19063601 -0.108561 0.43775001
0.192681 -0.10853049 0.43762499
0.19466901 -0.108993 0.43737501
0.19684479 -0.1092814 0.43684998
0.19890526 -0.10951325 0.4363125
0.0068955352 -0.107048 0.43799999
0.0089928955 -0.107002 0.43781251
0.0105725 -0.107048 0.43799999
0.093567297 -0.107048 0.43799999
0.095000371 -0.10741175 0.43734378
0.09675511 -0.10705 0.43658331
0.18543899 -0.107017 0.437875
0.187014 -0.107017 0.437875
0.18859001 -0.107017 0.437875
0.1906085 -0.1069715 0.43768752
0.192653 -0.1069405 0.4375625
0.19509067 -0.10736317 0.43714583
0.1973635 -0.10717375 0.43637502
0.19881999 -0.107635 0.43612501
0.0046193064 -0.10564667 0.43799999
0.0068955352 -0.105997 0.43799999
0.0089966655 -0.105997 0.43799999
0.095300101 -0.10562667 0.43791667
0.097091377 -0.10530625 0.43731251
0.098821037 -0.104926 0.43645835
0.183365 -0.10545675 0.4379375
0.1854125 -0.105427 0.43781251
0.187014 -0.105442 0.437875
0.188563 -0.105427 0.43781251
0.19055425 -0.1053665 0.43756247
0.192598 -0.1053365 0.43743753
0.19494165 -0.10518599 0.43681252
0.19709533 -0.10520466 0.43616667
0.0026929551 -0.103356 0.4379375
0.0042691198 -0.103896 0.43799999
0.097382195 -0.10350633 0.43783334
0.099111147 -0.10312726 0.43696874
0.100489 -0.102405 0.43612501
0.18146467 -0.10319533 0.43799999
0.18335176 -0.1033485 0.43790627
0.18542574 -0.10333374 0.43784377
0.187014 -0.103341 0.437875
0.18901567 -0.10328717 0.43764582
0.19142576 -0.10317151 0.43715623
0.19339825 -0.10310499 0.43687499
0.19503999 -0.10313166 0.43625
0.00216798 -0.101795 0.43799999
0.099224627 -0.1011465 0.43746874
0.100944 -0.10076699 0.43658331
0.18128949 -0.10126951 0.43799999
0.18331225 -0.1012265 0.43781251
0.18539925 -0.10121924 0.43778124
0.18727534 -0.10101766 0.43766665
0.1891084 -0.10123 0.43737498
0.191248 -0.1009805 0.43674999
0.193177 -0.10089375 0.43637499
-0.0041330601 -0.098586798 0.43775001
-0.0027346702 -0.099343427 0.43799999
0.099799454 -0.09909755 0.43768752
0.10120775 -0.098934755 0.43696874
0.1026255 -0.098786101 0.4363125
0.1812505 -0.099147171 0.43790624
0.18322101 -0.099076428 0.43759376
0.18529348 -0.099062279 0.43753123
0.18731175 -0.099019803 0.43734375
0.18919301 -0.098906621 0.43684375
0.19109724 -0.098807551 0.43640625
0.193122 -0.098772153 0.43625
-0.0041342401 -0.097564697 0.437875
0.099842198 -0.097564697 0.437875
0.10129425 -0.096921697 0.43734372
0.1032295 -0.096769251 0.43665624
0.104704 -0.096156202 0.43625
0.18139534 -0.0972054 0.43783334
0.18323401 -0.096984148 0.43762499
0.18530649 -0.096970275 0.4375625
0.18729851 -0.096914873 0.43731248
0.18917951 -0.096804075 0.43681252
0.191111 -0.096720949 0.43643752
0.19292933 -0.096844494 0.43620834
0.10155401 -0.095077805 0.43770835
0.10336275 -0.094796598 0.43721876
0.10531726 -0.094667792 0.436625
0.106827 -0.094090402 0.43637499
0.181711 -0.094911903 0.43775001
0.18318149 -0.094857767 0.4375
0.18525401 -0.094844252 0.43743753
0.18724525 -0.094789997 0.43718749
0.18911201 -0.094674803 0.43665627
0.19106974 -0.094607018 0.43634376
0.192571 -0.0945732 0.43618751
0.101972 -0.093390197 0.43799999
0.10329399 -0.092969067 0.43766665
0.105153 -0.092600845 0.43724999
0.10720666 -0.092721231 0.43649998
0.179663 -0.092313297 0.437875
0.18117274 -0.092805445 0.43771875
0.18312949 -0.092732452 0.43737501
0.18516125 -0.092699356 0.43721876
0.1871115 -0.092626445 0.43687499
0.188888 -0.092730232 0.43654168
0.191029 -0.093017101 0.43625
0.192543 -0.092990503 0.43612501
0.103022 -0.091289103 0.43799999
0.10483541 -0.090801239 0.437675
0.10731333 -0.090717763 0.43693748
0.1088735 -0.091434397 0.43618751
0.17913726 -0.090737998 0.437875
0.18109575 -0.090666726 0.43753123
0.18306349 -0.090601973 0.43721873
0.18513475 -0.090589002 0.43715623
0.18695466 -0.090713941 0.43691668
0.189147 -0.091290534 0.43633333
0.1910015 -0.091434449 0.43618751
0.105094 -0.089162499 0.437875
0.10660825 -0.088586733 0.43762499
0.109154 -0.089296021 0.43647498
0.17722867 -0.088470839 0.43791667
0.17904775 -0.088593177 0.43765622
0.18104401 -0.088542528 0.43740624
0.1830245 -0.089009799 0.437125
0.1850415 -0.088971645 0.43693751
0.18717901 -0.089257173 0.436625
0.18894976 -0.089361273 0.43628126
0.190506 -0.089878 0.43625
0.106834 -0.086703598 0.43783334
0.10902867 -0.087374531 0.43681249
0.175512 -0.086036302 0.43799999
0.17693549 -0.087012246 0.43762499
0.1790095 -0.086999848 0.4375625
0.181005 -0.086950153 0.43731248
0.18297201 -0.087412171 0.43700001
0.1849625 -0.087362178 0.43674999
0.18692376 -0.08729963 0.43643752
0.18892249 -0.08725585 0.43621874
0.107194 -0.084961496 0.437875
0.1086375 -0.085382752 0.43734372
0.1105055 -0.08520595 0.43643749
0.17498651 -0.084985703 0.43799999
0.17693576 -0.0854377 0.43762499
0.17904776 -0.085443825 0.43765625
0.181031 -0.085388906 0.43737498
0.18291974 -0.085291423 0.43687502
0.184883 -0.085230425 0.43656251
0.18689699 -0.085193746 0.43637499
0.18890899 -0.085157149 0.43618751
0.107225 -0.083409846 0.43799999
0.108684 -0.083320498 0.43753123
0.11052924 -0.083130121 0.43653125
0.1749485 -0.083392054 0.43790624
0.17694849 -0.083344422 0.43765625
0.17907324 -0.083356321 0.43771875
0.18105699 -0.083302744 0.43743747
0.18282801 -0.083154 0.43665624
0.18480349 -0.083100401 0.43637499
0.18684351 -0.083076678 0.43625
0.18889549 -0.083058797 0.43615627
0.107225 -0.081834003 0.43799999
0.10873026 -0.081256494 0.43771875
0.11060025 -0.08108823 0.43681249
0.112028 -0.080460697 0.43625
0.17341 -0.0813087 0.43799999
0.17491099 -0.081274003 0.43781251
0.17688549 -0.081215903 0.4375
0.17900924 -0.081227578 0.43756253
0.18097901 -0.081169501 0.43725002
0.1827625 -0.08103025 0.43650001
0.184751 -0.080983847 0.43625
0.18681651 -0.080972247 0.43618751
0.18888199 -0.080960646 0.43612501
0.1087615 -0.079179227 0.43784377
0.11092401 -0.07889501 0.43685001
0.112028 -0.079414301 0.43625
0.17341 -0.079732902 0.43799999
0.174936 -0.079185002 0.437875
0.1768855 -0.079117149 0.4375
0.1789325 -0.079094626 0.43737501
0.18091425 -0.079043902 0.43709373
0.182697 -0.078908101 0.43634373
0.184751 -0.078891098 0.43625
0.18680325 -0.078874223 0.43615624
0.18888199 -0.078868553 0.43612501
0.108955 -0.077266864 0.43791667
0.1109366 -0.077017382 0.43689999
0.112028 -0.0762752 0.43625
0.17491099 -0.0770735 0.43781251
0.17686024 -0.07700748 0.4374375
0.17881751 -0.076947056 0.43709373
0.18075925 -0.076881006 0.43671876
0.182684 -0.076809399 0.4363125
0.18473776 -0.076792851 0.43621874
0.18698233 -0.076609299 0.43616667
0.18888199 -0.076776356 0.43612501
0.109295 -0.074983895 0.437875
0.11074299 -0.074898273 0.43737498
0.11238768 -0.074538343 0.43629166
0.17341 -0.0750053 0.43799999
0.17483601 -0.074941099 0.43762499
0.176759 -0.074866176 0.43718749
0.17871526 -0.074807376 0.43684375
0.18065551 -0.074743152 0.43646875
0.182658 -0.074705653 0.43625
0.18476425 -0.074711055 0.43628123
0.18683027 -0.074700326 0.43621874
0.18892249 -0.074700251 0.43621877
0.109295 -0.072883397 0.437875
0.110735 -0.072795004 0.43734372
0.11255925 -0.072618052 0.43628126
0.173361 -0.072883397 0.437875
0.17483599 -0.072841771 0.43762499
0.17674625 -0.072763801 0.43715623
0.17863849 -0.072680548 0.43665624
0.1805785 -0.072618149 0.43628126
0.182449 -0.072773434 0.43616667
0.184175 -0.073115103 0.43612501
0.18731301 -0.073115103 0.43612501
0.18888199 -0.073115103 0.43612501
0.10876125 -0.070777826 0.43784374
0.110696 -0.070671722 0.43718749
0.11241966 -0.0707215 0.43641672
0.173336 -0.070772856 0.43781251
0.17479874 -0.070727378 0.43753126
0.17669575 -0.070646495 0.43703124
0.1786 -0.070570678 0.43656254
0.18040834 -0.070701234 0.43629166
0.182083 -0.071023002 0.43612501
0.1087535 -0.068672501 0.43781251
0.110696 -0.068574473 0.43718749
0.11277968 -0.069332331 0.43645832
0.173311 -0.068662703 0.43775001
0.1747365 -0.068603978 0.43737501
0.17644133 -0.068693504 0.43683329
0.1786 -0.068999998 0.43656251
0.18074 -0.069299303 0.43625
0.182083 -0.06945385 0.43612501
0.107225 -0.0666008 0.43799999
0.10873026 -0.066558048 0.43771875
0.11068 -0.066991955 0.437125
0.11260776 -0.067414977 0.43646872
0.172994 -0.066400364 0.43783334
0.17456166 -0.066680498 0.43737498
0.17673968 -0.067277201 0.43670833
0.1785745 -0.0674197 0.43650001
0.18062976 -0.067405149 0.43640625
0.18243165 -0.067187399 0.43612501
0.107194 -0.065006398 0.437875
0.108692 -0.064960003 0.4375625
0.11064026 -0.065395921 0.43696874
0.11240867 -0.065481335 0.43637499
0.17276201 -0.064978555 0.43768752
0.17489468 -0.065275632 0.43733335
0.17659475 -0.065367803 0.43678126
0.17860025 -0.065335006 0.43656254
0.18069449 -0.065334998 0.43656254
0.18264501 -0.065283574 0.43621877
0.184175 -0.064746603 0.43612501
0.106854 -0.063261904 0.43791667
0.108692 -0.063385703 0.43756247
0.11061651 -0.063286096 0.43687499
0.11206 -0.063213646 0.43637499
0.17126 -0.06343095 0.437875
0.172737 -0.063394777 0.43762499
0.17469899 -0.063345 0.43728125
0.176633 -0.063286096 0.43687499
0.178728 -0.063286096 0.43687499
0.18079799 -0.063277051 0.43681249
0.18270999 -0.063213699 0.43637502
0.184228 -0.063195601 0.43625
0.107179 -0.06132175 0.43781251
0.10868425 -0.061282348 0.43753123
0.11061651 -0.0611904 0.43687499
0.11238734 -0.060934335 0.43629166
0.17126 -0.061330449 0.437875
0.172737 -0.061295398 0.43762499
0.17468649 -0.061242901 0.43725002
0.17668301 -0.061207823 0.43700001
0.17877951 -0.061207898 0.43700001
0.18085 -0.061199121 0.43693751
0.18270999 -0.061120328 0.43637502
0.18420151 -0.06109415 0.43618751
0.10682366 -0.059043601 0.43779168
0.10865325 -0.059166525 0.43740624
0.110561 -0.059065074 0.43665624
0.11255925 -0.059014276 0.43628126
0.17126 -0.059229903 0.437875
0.172737 -0.0591961 0.43762499
0.174674 -0.059141174 0.43721873
0.1766455 -0.059098899 0.43690625
0.17874101 -0.059098948 0.43690625
0.18077224 -0.059077851 0.43674999
0.182671 -0.059014451 0.43628126
0.105124 -0.0566204 0.43799999
0.106608 -0.05709675 0.43762499
0.10860626 -0.057043798 0.43721873
0.110561 -0.056970324 0.43665624
0.1125755 -0.056929551 0.43634376
0.17092633 -0.0569597 0.43791667
0.17269975 -0.057084549 0.43753123
0.174821 -0.056884538 0.4368
0.17700425 -0.0569501 0.43650001
0.17903399 -0.056929801 0.43634373
0.180617 -0.057457 0.43637502
0.182083 -0.057424098 0.43612501
0.10457599 -0.055032797 0.43790624
0.10659275 -0.054989651 0.4375625
0.108583 -0.054934599 0.437125
0.110569 -0.054879598 0.43668747
0.1125915 -0.054844223 0.43640625
0.17089398 -0.05484863 0.43783334
0.1728932 -0.054842461 0.43722501
0.1751096 -0.05495774 0.43647498
0.17742601 -0.054824699 0.43625
0.178945 -0.055331901 0.43612501
0.10453125 -0.052909523 0.43771875
0.106532 -0.052860372 0.43731251
0.1085365 -0.05281505 0.43693751
0.11054525 -0.052773476 0.43659377
0.1125755 -0.052743249 0.43634376
0.16915999 -0.052928299 0.437875
0.17062551 -0.052894399 0.43759376
0.17295651 -0.052805018 0.43685415
0.17515899 -0.052906301 0.43625
0.1774005 -0.053247452 0.43618751
0.103022 -0.0508423 0.43799999
0.10500333 -0.050784215 0.4375
0.1069955 -0.050733499 0.4370625
0.10852875 -0.050715275 0.43690625
0.110522 -0.05066815 0.43650001
0.112535 -0.050631899 0.43618751
0.16859874 -0.050816897 0.43778127
0.1709585 -0.050738368 0.4371042
0.17331524 -0.050660998 0.43643749
0.17476 -0.051147699 0.43612501
0.101972 -0.048741151 0.43799999
0.10332333 -0.0488929 0.43779168
0.1052012 -0.048574936 0.43745002
0.10698 -0.04862985 0.43700001
0.10852875 -0.048619375 0.43690628
0.110522 -0.048574228 0.43650001
0.112028 -0.0485464 0.43625
0.16859874 -0.04871675 0.43778127
0.17095834 -0.04864135 0.43710414
0.17331526 -0.048567198 0.43643752
0.17512535 -0.048362732 0.43616667
0.101972 -0.046640001 0.43799999
0.102964 -0.046613403 0.43775001
0.10500333 -0.046586767 0.4375
0.10698 -0.046533499 0.43700001
0.10835666 -0.046699237 0.43691668
0.110522 -0.047003753 0.43650001
0.112028 -0.046976801 0.43625
0.168623 -0.046623349 0.43784377
0.17103982 -0.046566751 0.43731248
0.17339 -0.047017246 0.436625
0.175308 -0.046970099 0.43618751
0.101972 -0.0445389 0.43799999
0.103474 -0.045031998 0.43768752
0.105483 -0.044993453 0.43731248
0.10698 -0.0449613 0.43700001
0.10869566 -0.045297597 0.43687499
0.1108104 -0.04552754 0.4364
0.16675667 -0.0443638 0.43799999
0.16842766 -0.044692632 0.43779168
0.171048 -0.044995602 0.43733335
0.1734515 -0.045462549 0.43678123
0.17517532 -0.045585964 0.43629166
0.101972 -0.042962998 0.43799999
0.10345151 -0.043448001 0.43759376
0.10546049 -0.043410774 0.43721876
0.10698 -0.043389 0.43700001
0.108521 -0.043376602 0.43687499
0.110498 -0.043330073 0.43640625
0.165006 -0.042962998 0.43799999
0.16655751 -0.0429569 0.4379375
0.16871333 -0.043276135 0.43762502
0.17100734 -0.043411832 0.43722916
0.17340225 -0.043354921 0.43665624
0.17491101 -0.043339401 0.43650001
0.10144649 -0.0413872 0.43799999
0.1034295 -0.041339926 0.4375
0.105468 -0.041316226 0.43725002
0.1069955 -0.041298501 0.4370625
0.1085365 -0.041286774 0.43693751
0.11049 -0.041233625 0.43637502
0.165006 -0.0413872 0.43799999
0.1668016 -0.0412586 0.43775001
0.16914721 -0.041426081 0.43729997
0.17136851 -0.04127505 0.43681252
0.17338975 -0.041257299 0.436625
0.17537126 -0.041230604 0.43634373
0.099870697 -0.038760699 0.43799999
0.10141774 -0.039274901 0.437875
0.1034295 -0.039241176 0.4375
0.1054755 -0.0392216 0.43728125
0.107011 -0.039207548 0.437125
0.108552 -0.03919635 0.43700001
0.11049 -0.039140277 0.43637502
0.163605 -0.039110899 0.43799999
0.16544849 -0.039266527 0.43778124
0.167441 -0.039241251 0.4375
0.16935776 -0.039199248 0.43703127
0.17129526 -0.039162852 0.436625
0.17335275 -0.039154325 0.43653125
0.17535876 -0.039134774 0.4363125
0.17723466 -0.038950998 0.43620834
0.099501528 -0.037002731 0.43791667
0.10138175 -0.037161052 0.43771872
0.10342225 -0.037139751 0.43746877
0.10546049 -0.037118502 0.43721876
0.107011 -0.037110601 0.437125
0.10854425 -0.037097324 0.43696874
0.11049 -0.03704695 0.43637502
0.16337174 -0.037171677 0.43784374
0.16534251 -0.037142523 0.4375
0.16735725 -0.037123978 0.43728125
0.169237 -0.037076175 0.43671873
0.171222 -0.037052251 0.43643749
0.17325325 -0.037039004 0.43628123
0.17532076 -0.037033699 0.43621874
0.1774005 -0.037031028 0.43618751
0.097769603 -0.034558501 0.43799999
0.099302858 -0.03506875 0.43781251
0.10136 -0.035053752 0.43762499
0.10343675 -0.035046175 0.43753123
0.105483 -0.0350287 0.43731248
0.107026 -0.035018601 0.43718749
0.10855974 -0.035006128 0.43703124
0.110514 -0.034961101 0.43646875
0.16337176 -0.035071224 0.43784374
0.16527101 -0.0350287 0.43731248
0.16729751 -0.03501365 0.437125
0.169237 -0.034981102 0.43671873
0.1711725 -0.03494855 0.4363125
0.1732285 -0.034941126 0.43621874
0.17481001 -0.035466801 0.43625
0.097769603 -0.032982599 0.43799999
0.099302858 -0.032968525 0.43781251
0.10136 -0.032954399 0.43762499
0.10343675 -0.032947376 0.43753123
0.10531333 -0.032757636 0.43733335
0.10669167 -0.033101033 0.43725002
0.108835 -0.032793295 0.43687502
0.110654 -0.033031698 0.43633333
0.163932 -0.032977849 0.4379375
0.16534251 -0.032945 0.4375
0.16736925 -0.032930776 0.43731251
0.16932151 -0.03290255 0.43693748
0.171197 -0.032860249 0.43637499
0.17305 -0.033022065 0.43620834
0.097769603 -0.030881502 0.43799999
0.099302851 -0.030868275 0.43781251
0.10136 -0.030855048 0.43762499
0.1033925 -0.030835276 0.43734375
0.10542275 -0.030815449 0.4370625
0.107473 -0.03080225 0.43687499
0.10946675 -0.030773649 0.43646872
0.163955 -0.030881502 0.43799999
0.16537775 -0.030852824 0.43759376
0.16741699 -0.03084185 0.4374375
0.16935751 -0.030813225 0.43703124
0.1711725 -0.030762624 0.4363125
0.172668 -0.0312723 0.43612501
0.099317029 -0.028772075 0.437875
0.10133775 -0.028749524 0.43753123
0.1033555 -0.028726975 0.43718749
0.1053775 -0.0287065 0.43687499
0.107404 -0.028688051 0.43659374
0.109248 -0.028842434 0.43629166
0.163955 -0.0293056 0.43799999
0.16543674 -0.028763875 0.43775001
0.167393 -0.0287393 0.43737501
0.1693455 -0.028714726 0.43699998
0.1706495 -0.028669551 0.4363125
-0.0135905 -0.0261539 0.43799999
0.099842198 -0.0266716 0.437875
0.10136675 -0.026658274 0.43765625
0.1033555 -0.02662975 0.43718749
0.10534 -0.026601225 0.43671873
0.107176 -0.0267547 0.43637499
0.163932 -0.0266755 0.4379375
0.165437 -0.026664 0.43775001
0.16740499 -0.026643101 0.43740624
0.169285 -0.026608825 0.43684375
0.170625 -0.0265726 0.43625
-0.0167422 -0.0251034 0.43799999
-0.0149885 -0.024398299 0.43791667
-0.013063299 -0.024574576 0.4379375
0.099842198 -0.02457105 0.437875
0.101374 -0.024560524 0.43768752
0.10335524 -0.024532452 0.43718749
0.105302 -0.02502095 0.43656248
0.16148867 -0.024400698 0.43795833
0.16332501 -0.024562351 0.43771875
0.16536601 -0.024553575 0.4375625
0.16734549 -0.024536099 0.43724999
0.16922501 -0.025028151 0.4366875
0.17057601 -0.024995901 0.43612501
-0.0151643 -0.02299895 0.4379375
-0.0130615 -0.022995699 0.437875
-0.0114894 -0.0230022 0.43799999
0.099870697 -0.0230022 0.43799999
0.101389 -0.0229891 0.43774998
0.10337 -0.02296285 0.43725002
0.1053175 -0.023453675 0.436625
0.161283 -0.022995699 0.437875
0.16328999 -0.0229825 0.43762499
0.16534251 -0.022976 0.4375
0.16729751 -0.022956301 0.437125
0.1691885 -0.023452025 0.43659377
0.17057601 -0.023426801 0.43612501
-0.015160925 -0.021418775 0.43784377
-0.0130606 -0.021418775 0.43784374
-0.0111381 -0.0212493 0.43795833
0.099870697 -0.0219517 0.43799999
0.101389 -0.021414151 0.43774998
0.1033775 -0.021391176 0.43728125
0.1053475 -0.02136525 0.43674999
0.15975299 -0.020901101 0.43799999
0.1612715 -0.021418776 0.43784377
0.16325474 -0.021403499 0.43753123
0.165295 -0.021395799 0.43737501
0.16727351 -0.021380626 0.4370625
0.16915199 -0.021353025 0.43650001
0.17057601 -0.021857699 0.43612501
-0.01516205 -0.019844901 0.437875
-0.013062474 -0.019321101 0.43790627
-0.010957925 -0.0193143 0.43775001
-0.0093855802 -0.019319851 0.437875
0.099870697 -0.019325249 0.43799999
0.1013815 -0.019312873 0.43771875
0.10336275 -0.019290825 0.43721876
0.10530225 -0.019261999 0.43656248
0.15920499 -0.0193225 0.4379375
0.161191 -0.019308701 0.43762499
0.163185 -0.019296326 0.43734378
0.16522399 -0.0192894 0.43718749
0.1672495 -0.019281151 0.43699998
0.1691035 -0.019253574 0.43637502
-0.0125382 -0.017221551 0.4379375
-0.010957175 -0.017213024 0.43771872
-0.0088547152 -0.017208349 0.43759376
-0.0072850399 -0.016694101 0.437875
