# .PCD v0.7 - Point Cloud Data file format
VERSION 0.7
FIELDS x y z
SIZE 4 4 4
TYPE F F F
COUNT 1 1 1
WIDTH 1332
HEIGHT 1
VIEWPOINT 0 0 0 1 0 0 0
POINTS 1332
DATA ascii
0.085844785 -0.092169754 0.44222412
0.087895364 -0.092333794 0.44199544
0.089964159 -0.092515782 0.44186077
0.091917008 -0.093166456 0.44145295
0.093335964 -0.093758062 0.44101626
-0.023070214 -0.079844862 0.44256511
-0.020973232 -0.080051169 0.44255564
-0.018670274 -0.079945669 0.44266495
-0.017321303 -0.080536947 0.44329131
0.07902348 -0.089309007 0.44284487
0.080906823 -0.089650072 0.44271389
0.082456358 -0.089781545 0.4425815
0.083992109 -0.089901239 0.44238654
0.085999429 -0.090596706 0.44219795
0.088069953 -0.090779386 0.44206324
0.090139434 -0.090961874 0.44192854
0.092106834 -0.091626145 0.44158337
0.093931153 -0.091546521 0.44108135
-0.022915613 -0.078272261 0.44253898
-0.020820539 -0.078488722 0.44259217
-0.018887976 -0.078546867 0.44285223
0.077410609 -0.087736547 0.44282952
0.078973815 -0.087880075 0.44275978
0.081061646 -0.088075228 0.44268772
0.082611129 -0.088207252 0.44255531
0.084146813 -0.088327587 0.44236037
0.086154066 -0.089023754 0.44217178
0.088231169 -0.089212567 0.4420684
0.090280287 -0.089378119 0.44183984
0.092319854 -0.089537524 0.44157988
0.094305947 -0.089655526 0.44110084
-0.024282213 -0.076020673 0.4425112
-0.022714011 -0.076195136 0.44262946
-0.020620238 -0.076421089 0.44274533
-0.019051868 -0.076605454 0.44292626
0.077232599 -0.08595185 0.44280195
0.079122573 -0.086299524 0.44270229
0.081210151 -0.086494885 0.4426302
0.082765907 -0.086632855 0.44252914
0.084301516 -0.086753927 0.4423342
0.086373448 -0.086937726 0.44219953
0.08844392 -0.087121405 0.44206485
0.090486325 -0.087282293 0.44180498
0.09252578 -0.087442882 0.44154504
0.094519012 -0.087568887 0.44109735
0.096081406 -0.087154612 0.44083115
-0.024416825 -0.073746406 0.44268394
-0.022512242 -0.074116834 0.44271994
-0.020419771 -0.074351825 0.44289848
-0.018905668 -0.075079516 0.44321346
0.077246845 -0.084009305 0.44277078
0.079322927 -0.084194146 0.44263607
0.081410259 -0.084389791 0.44256395
0.082959488 -0.084522888 0.44243163
0.084507793 -0.084655702 0.44229934
0.086566441 -0.084829107 0.44210204
0.088616662 -0.084996834 0.44187343
0.090671487 -0.085169829 0.44167617
0.092731699 -0.085348226 0.4415102
0.09472473 -0.085476339 0.44106257
0.096235603 -0.085586131 0.44080508
-0.025931654 -0.071151264 0.44281825
-0.024401765 -0.071803279 0.44263187
-0.022301637 -0.072000481 0.44255972
-0.020407362 -0.072420061 0.44292992
0.07587789 -0.081754021 0.44274294
0.07745333 -0.081909023 0.44273585
0.079516955 -0.082083799 0.44253853
0.081591494 -0.082269087 0.44240382
0.083658323 -0.082448907 0.44223785
0.08519949 -0.082576983 0.4420743
0.086752534 -0.08271569 0.44197327
0.088788509 -0.082873695 0.44168213
0.090856545 -0.083058275 0.44154739
0.092916176 -0.08323738 0.44138151
0.094930455 -0.083383761 0.44102776
0.096441202 -0.083494753 0.4407703
-0.02577153 -0.069559693 0.44266674
-0.024196742 -0.069710039 0.44262832
-0.022097591 -0.069911979 0.44258752
-0.020531941 -0.070102498 0.44283101
0.075751483 -0.07944423 0.44270667
0.077635705 -0.079788178 0.44257572
0.079711117 -0.07997407 0.44244102
0.081772625 -0.080149546 0.44224375
0.083832361 -0.08032494 0.44204649
0.085392542 -0.08046934 0.44197682
0.086938694 -0.080603138 0.44184455
0.08896713 -0.080757238 0.44152206
0.091034345 -0.0809424 0.44138741
0.093093917 -0.081122212 0.44122148
0.09511444 -0.081275441 0.44089904
-0.025560051 -0.06744469 0.44250655
-0.023988076 -0.067603789 0.44253075
-0.021894533 -0.067827307 0.44264659
-0.020335168 -0.068046801 0.44310945
0.074241951 -0.076821595 0.44267389
0.075748041 -0.077486821 0.44258159
0.077824116 -0.077673428 0.44244692
0.07989274 -0.077854961 0.44228095
0.081959993 -0.078036301 0.44211498
0.084019192 -0.078212447 0.44191772
0.085934468 -0.078208402 0.44179142
0.087262116 -0.078668237 0.44162402
0.089145631 -0.078641966 0.44136205
0.09120512 -0.078822538 0.44119611
0.093256682 -0.078997932 0.44099891
0.095298342 -0.079167932 0.44077048
-0.02535123 -0.065339185 0.44240901
-0.02377937 -0.065497942 0.44243324
-0.021690287 -0.065737508 0.44267434
-0.020180311 -0.066471606 0.44308326
0.074385256 -0.075236864 0.44258508
0.075930879 -0.0753676 0.44242147
0.078000382 -0.075549856 0.44225553
0.080074407 -0.075736903 0.44212085
0.082159862 -0.075933576 0.44204882
0.084218904 -0.076110631 0.44185156
0.086276054 -0.076287523 0.44165438
0.087807737 -0.0764127 0.44145948
0.089310639 -0.076517999 0.44113946
0.091369301 -0.076699309 0.44097355
0.093440853 -0.076890305 0.44087026
0.094966128 -0.077014849 0.44067541
-0.025663955 -0.063174576 0.44225118
-0.023574434 -0.063404813 0.44242969
-0.021486994 -0.063651212 0.44273344
0.074066557 -0.073085055 0.44255257
0.076125465 -0.073258966 0.44232398
0.078194514 -0.073441967 0.44215804
0.080280647 -0.073639013 0.44208598
0.082366079 -0.073835969 0.44201395
0.084425032 -0.074013874 0.44181672
0.086482093 -0.07419166 0.44161955
0.088013694 -0.074317731 0.44142464
0.08952339 -0.074429296 0.44113594
0.091568083 -0.074601747 0.44090748
0.093450114 -0.074951947 0.44081825
0.095120333 -0.07544633 0.44064933
-0.027021863 -0.060900595 0.4420355
-0.025457855 -0.061078142 0.44221634
-0.023365814 -0.061299808 0.44233218
-0.021476315 -0.061722945 0.44280669
0.072709128 -0.070839114 0.44258732
0.074255742 -0.070971549 0.44242376
0.076325953 -0.071155392 0.44225776
0.078394741 -0.071339197 0.44209185
0.080474548 -0.071531937 0.44198853
0.082572304 -0.071738318 0.44197905
0.08463116 -0.071917176 0.44178185
0.086688131 -0.072095819 0.44158471
0.088246733 -0.072241291 0.441515
0.089698166 -0.072873086 0.44120368
0.091722369 -0.073032379 0.44088137
0.093916975 -0.073578924 0.44071013
0.095223136 -0.074400611 0.44063196
-0.027598225 -0.059604388 0.44197655
-0.02530328 -0.05950582 0.44219017
-0.023213454 -0.059734482 0.44236863
-0.021603536 -0.059416663 0.44279131
0.070815079 -0.068532117 0.44256186
0.072373495 -0.068674065 0.44246086
0.074450605 -0.068863213 0.44232622
0.076480687 -0.069581293 0.4422316
0.078531154 -0.069752321 0.44197187
0.080629207 -0.069958739 0.44196239
0.082701474 -0.070147216 0.44182774
0.084772639 -0.070335642 0.4416931
0.086829409 -0.070514932 0.44149595
0.088374108 -0.070651613 0.44136366
0.089859292 -0.071307093 0.44120887
0.091897592 -0.071476601 0.44094914
0.093940631 -0.071650468 0.44072071
0.095480137 -0.071786433 0.44058847
-0.028769504 -0.057055458 0.44223455
-0.027245428 -0.057727125 0.44217351
-0.025147445 -0.057929963 0.44213271
-0.023058813 -0.058161475 0.44234246
-0.021450825 -0.05784931 0.44282779
0.070969939 -0.066956922 0.44253567
0.072511449 -0.067086391 0.44234082
0.074599646 -0.067284442 0.44226876
0.076623648 -0.067998588 0.44214287
0.07868582 -0.068179071 0.4419457
0.080771327 -0.068376802 0.44187364
0.082843393 -0.068565771 0.44173902
0.08491414 -0.068754673 0.44160438
0.086977184 -0.068938963 0.44143853
0.088528581 -0.069080353 0.44133756
0.090065174 -0.069212951 0.44117403
0.092124328 -0.069396868 0.44100818
0.094146281 -0.069558546 0.44068593
0.095634334 -0.07021796 0.4405624
-0.028614907 -0.055482905 0.44220841
-0.027042216 -0.055637635 0.44220129
-0.024941355 -0.05583363 0.44209784
-0.022852624 -0.056064151 0.44230759
-0.021293953 -0.056267623 0.44273895
0.0711248 -0.065381631 0.44250947
0.072666243 -0.065511845 0.44231465
0.074754417 -0.065710142 0.44224256
0.076829962 -0.065900043 0.44210798
0.078892037 -0.066081449 0.44191083
0.080958731 -0.066266932 0.44174489
0.083036661 -0.066460602 0.44164157
0.085100614 -0.066645838 0.44147572
0.087169759 -0.066835091 0.4413411
0.088707313 -0.066968411 0.44117761
0.09025728 -0.067110255 0.44107667
0.092316113 -0.067294963 0.44091082
0.094141304 -0.067612335 0.44057146
-0.02840269 -0.053373206 0.44204825
-0.026831854 -0.053531107 0.44207248
-0.024734031 -0.053734049 0.44203168
-0.022646435 -0.053966802 0.44227272
-0.021087548 -0.054168086 0.44270402
0.072895303 -0.063428357 0.4424049
0.074972332 -0.06361901 0.44227025
0.077042192 -0.063805565 0.44210437
0.079079948 -0.06397178 0.44178212
0.081139818 -0.064153895 0.44158491
0.083210737 -0.064343929 0.44145036
0.085300125 -0.064546011 0.44140959
0.087355547 -0.064727694 0.44121245
0.088913202 -0.064874098 0.44114277
0.090442576 -0.065004021 0.44094801
0.092486292 -0.065181121 0.44071963
-0.028242072 -0.051788356 0.44189689
-0.026624314 -0.051431645 0.44200629
-0.024529178 -0.051640995 0.44202814
-0.022441393 -0.051872615 0.44226918
-0.020883162 -0.052075092 0.44273177
0.071589381 -0.06065597 0.44243091
0.073096111 -0.061324537 0.44233868
0.07517872 -0.061519593 0.44223535
0.077224523 -0.061691433 0.44194433
0.079279967 -0.061870676 0.44171593
0.081339672 -0.06205368 0.44151878
0.083403915 -0.062240355 0.4413529
0.085506134 -0.062450506 0.44137472
0.087561473 -0.06263303 0.44117761
0.089466915 -0.062629111 0.44102007
0.090801194 -0.063099571 0.44089445
0.092663854 -0.06307286 0.44055974
-0.026416814 -0.049332555 0.4419401
-0.024327978 -0.049556751 0.44211853
-0.022241775 -0.049793225 0.44242212
-0.020678703 -0.049981352 0.44275945
0.069695331 -0.05834892 0.44240546
0.071411371 -0.05887121 0.44240335
0.073285431 -0.059213601 0.44220996
0.075361744 -0.05940536 0.44207528
0.077424757 -0.059589595 0.44187817
0.079467721 -0.059762515 0.44158721
0.081545748 -0.059957527 0.44148391
0.083616391 -0.060148753 0.44134936
0.085712157 -0.060354944 0.44133988
0.0877674 -0.060538393 0.44114277
0.089820951 -0.060721669 0.44094566
0.091364056 -0.060860995 0.44081345
0.092339478 -0.060925841 0.44049606
-0.026206695 -0.047227979 0.44181138
-0.024125621 -0.047468442 0.44217759
-0.022037551 -0.047700617 0.44244987
0.069850184 -0.056773737 0.44237927
0.071425617 -0.056928735 0.44237217
0.073480479 -0.057107124 0.44211242
0.075550415 -0.057295918 0.4419466
0.077619061 -0.05748453 0.44178078
0.079667643 -0.057662308 0.44152108
0.081751816 -0.05786141 0.44144908
0.083841734 -0.05806401 0.44140834
0.085918166 -0.058259383 0.44130504
0.087973319 -0.058443755 0.44110793
0.090026796 -0.058627952 0.44091088
0.091541566 -0.058753159 0.44065359
-0.025997875 -0.045127079 0.44171387
-0.023918185 -0.045368463 0.44211143
-0.021830227 -0.045599226 0.44238368
0.068007655 -0.053941678 0.44234511
0.0695315 -0.054621775 0.44234672
0.071609691 -0.054815006 0.44221216
0.07366956 -0.054997846 0.44198373
0.075733289 -0.055183936 0.44178662
0.0777952 -0.055369869 0.44158947
0.079867609 -0.055562474 0.44145492
0.081957892 -0.055765256 0.44141421
0.084060729 -0.055974919 0.44143599
0.086137339 -0.056170806 0.44133276
0.088179246 -0.056349114 0.44107312
0.090232626 -0.056534208 0.44087604
0.091747284 -0.056660637 0.44061881
-0.027354807 -0.042862054 0.44149831
-0.025790574 -0.043029282 0.44164774
-0.023709552 -0.04326617 0.44201395
-0.021622911 -0.043498188 0.44231746
-0.020009618 -0.0431615 0.44270855
0.067632079 -0.052311603 0.44229001
0.069710746 -0.052505437 0.44215542
0.071788177 -0.052699119 0.4420208
0.073852994 -0.052886218 0.44182375
0.075921804 -0.053076461 0.44165793
0.077989273 -0.053266458 0.44149211
0.080067553 -0.053462848 0.44138882
0.08216396 -0.053669102 0.44137937
0.084260367 -0.053875357 0.44136989
0.086343378 -0.054074951 0.44129792
0.088385165 -0.054254472 0.44103828
0.090438463 -0.054440439 0.4408412
0.09192463 -0.054554589 0.44045895
-0.027200386 -0.041291293 0.4414722
-0.025637403 -0.041460387 0.44165289
-0.023498755 -0.041159645 0.44185385
-0.021410387 -0.041385312 0.44209477
-0.019852908 -0.041581452 0.44261977
0.066320077 -0.049534347 0.44228473
0.067822665 -0.050202277 0.44216129
0.069900751 -0.050396699 0.4420267
0.071972117 -0.050587844 0.44186088
0.074053541 -0.050785065 0.44175759
0.076110341 -0.050969787 0.44152921
0.078189306 -0.051166717 0.44142598
0.080255069 -0.051357359 0.44126019
0.082344636 -0.051560368 0.44121945
0.08425723 -0.051928286 0.44125539
0.086344376 -0.0521302 0.44120422
0.088539615 -0.052683461 0.44101214
0.090578824 -0.052863628 0.4407526
0.092050448 -0.052972592 0.44030783
-0.027043125 -0.039715875 0.44138348
-0.025481623 -0.039886635 0.44159549
-0.023343045 -0.039585054 0.44179642
-0.021252684 -0.03980523 0.44197476
-0.019696228 -0.040001709 0.44253102
0.066423312 -0.048484255 0.44226727
0.067977481 -0.048627485 0.44213513
0.070044607 -0.048816394 0.44193795
0.072121188 -0.04901107 0.44180346
0.07420823 -0.049211565 0.44173142
0.076259062 -0.049394086 0.44147182
0.078331672 -0.049588371 0.44133729
0.080403335 -0.049782567 0.44120276
0.082486339 -0.049982663 0.44113076
0.084709182 -0.050549064 0.44106379
0.086795419 -0.050751124 0.44101265
0.088673726 -0.051103197 0.44089225
0.090698443 -0.051277928 0.44057018
-0.026885914 -0.038140949 0.44129479
-0.025278281 -0.037795827 0.44162327
-0.023188496 -0.038013004 0.44177029
-0.021093998 -0.038223654 0.44182342
-0.019535992 -0.038413789 0.44231701
0.065476343 -0.047330733 0.44225454
0.06657818 -0.046908963 0.44224107
0.068132296 -0.047052693 0.44210893
0.070188478 -0.047236636 0.44184929
0.072275892 -0.047437422 0.44177729
0.074351281 -0.047632415 0.44164273
0.076413661 -0.047821537 0.44144568
0.078486226 -0.048016239 0.44131115
0.080557846 -0.048210859 0.44117662
0.082640834 -0.048411202 0.44110462
0.084716812 -0.048608594 0.44100139
0.086785138 -0.048802938 0.44086689
0.088838562 -0.048991177 0.44066986
0.090696514 -0.04933551 0.44046617
-0.024916157 -0.035894345 0.44162184
-0.022977898 -0.035908766 0.44161025
-0.020885002 -0.036121078 0.44169468
-0.018805455 -0.036368612 0.44231105
0.066784658 -0.044808678 0.44220614
0.068338722 -0.044952951 0.442074
0.070394784 -0.045138091 0.44181439
0.072476566 -0.045336537 0.44171113
0.074546002 -0.045529369 0.44154534
0.076619804 -0.045724779 0.44141081
0.078698426 -0.045922831 0.44130754
0.0807826 -0.046123594 0.44123554
0.082853235 -0.046318717 0.44110107
0.084896527 -0.046502657 0.4408415
0.086964279 -0.04669752 0.44070703
0.089003332 -0.046881042 0.44044748
0.090472981 -0.047538344 0.44023031
-0.024341207 -0.033654828 0.44151989
-0.022769613 -0.033809468 0.44151279
-0.020675022 -0.034017492 0.44153464
-0.018594159 -0.034258224 0.44208843
-0.016979843 -0.033916734 0.44254193
0.06854514 -0.042853266 0.4420391
0.070612021 -0.04304466 0.44184199
0.072665833 -0.043230735 0.44158244
0.074740514 -0.043426886 0.44144794
0.076825917 -0.043628074 0.44137594
0.078910649 -0.043829173 0.44130394
0.080994874 -0.044030219 0.44123197
0.083078399 -0.044231217 0.44116002
0.085095897 -0.044405811 0.44077542
0.08714322 -0.044593286 0.44054717
0.088987947 -0.044934079 0.44028097
-0.024127815 -0.031549197 0.44129732
-0.022556864 -0.031703755 0.44129023
-0.020465137 -0.031915151 0.44137463
-0.018383052 -0.032149531 0.44186577
-0.016822165 -0.032334503 0.44239059
0.067249238 -0.04008301 0.44212759
0.068746164 -0.040751223 0.44197288
0.070812874 -0.040943488 0.44177583
0.07287205 -0.041133109 0.44154757
0.074946672 -0.041329835 0.44141307
0.077032059 -0.041531324 0.44134107
0.079116762 -0.04173274 0.44126913
0.081194706 -0.041931681 0.44116586
0.08326523 -0.042127997 0.4410314
0.085301764 -0.042311739 0.44074062
0.087342314 -0.042497739 0.4404811
0.088871203 -0.042637091 0.44028652
-0.02391704 -0.029448545 0.44113737
-0.022345524 -0.029601518 0.44109899
-0.020250663 -0.029805982 0.44105828
-0.018168788 -0.03003617 0.44151807
-0.0160846 -0.030271828 0.44207174
-0.014466308 -0.029922724 0.44246259
0.065880351 -0.03782763 0.44209978
0.06773594 -0.038352504 0.44188851
0.069079719 -0.038831133 0.44176295
0.071013704 -0.03884251 0.4417097
0.073078267 -0.039035488 0.4415127
0.075164564 -0.039237365 0.4414407
0.07724414 -0.039436821 0.44133747
0.07932286 -0.039636288 0.44123426
0.081381895 -0.039828721 0.44103727
0.083458357 -0.040027995 0.44093403
0.085507631 -0.040217698 0.44070578
0.087548062 -0.040404893 0.44044635
0.089076862 -0.04054511 0.44025174
-0.023708802 -0.027352035 0.44103998
-0.022135342 -0.02750227 0.44093901
-0.020039227 -0.027703874 0.44083574
-0.017958093 -0.027931679 0.44129553
-0.015872654 -0.02816003 0.44175526
-0.014309354 -0.028341731 0.44231129
0.064408109 -0.036622532 0.44208941
0.066030003 -0.036250338 0.44204229
0.067907937 -0.036602948 0.44185942
0.069320433 -0.036382571 0.44172224
0.071220003 -0.036744017 0.4416748
0.073295884 -0.036941964 0.44154033
0.075370759 -0.037140016 0.44140583
0.077456236 -0.037342113 0.44133386
0.079522766 -0.037537754 0.44116813
0.081581563 -0.03773107 0.44097114
0.083638541 -0.037924256 0.44077414
0.085700378 -0.038119286 0.4406085
0.08775381 -0.038312022 0.44041151
0.089791723 -0.038500175 0.44015214
-0.023491202 -0.025245883 0.44069237
-0.021918837 -0.025396284 0.44059142
-0.019671399 -0.025795726 0.44063625
-0.017747479 -0.025828987 0.44107306
-0.015662152 -0.026053632 0.44150144
-0.013575286 -0.026286859 0.44211763
0.066241689 -0.034152105 0.44203866
0.067795858 -0.034299456 0.44190654
0.069349177 -0.034446668 0.4417744
0.071431845 -0.034647353 0.44167116
0.073513553 -0.034848046 0.44156793
0.075582772 -0.035044603 0.44140223
0.077656418 -0.035243139 0.44126773
0.079716519 -0.035437457 0.44107077
0.081762247 -0.035627589 0.44081134
0.083825052 -0.035823539 0.44064561
0.085893072 -0.036021445 0.44051117
0.087959558 -0.036219172 0.44037673
0.090018056 -0.036414701 0.44021103
0.091552384 -0.036558736 0.44004774
-0.022286383 -0.023774965 0.44053641
-0.017534759 -0.023724623 0.44075671
-0.01545179 -0.0239494 0.44124764
-0.013366166 -0.024180681 0.44189501
0.066448174 -0.032051768 0.44200373
0.068002284 -0.032199714 0.44187161
0.069566324 -0.032351114 0.44180197
0.071643703 -0.032550517 0.44166747
0.073719829 -0.032749798 0.44153303
0.075794809 -0.032948993 0.44139859
0.07785657 -0.033144407 0.44120163
0.079916447 -0.033339612 0.44100469
0.081961893 -0.033530921 0.44074523
0.084030911 -0.033729497 0.44061077
0.086105466 -0.03392981 0.44050759
0.088185668 -0.034131996 0.44043562
0.090237662 -0.034326449 0.44023874
0.091772065 -0.034471117 0.44007546
-0.016854653 -0.022202361 0.44060314
-0.015294925 -0.022373876 0.44109645
-0.013155926 -0.022073181 0.44157872
-0.01153717 -0.021720005 0.44206318
0.068178408 -0.030631572 0.44197041
0.06978368 -0.03025493 0.44182962
0.071850039 -0.030451702 0.44163257
0.073931888 -0.030653208 0.44152942
0.076001026 -0.030851368 0.44136369
0.078050539 -0.03104428 0.44110426
0.079910047 -0.03139551 0.44086933
0.082103737 -0.03195639 0.44065663
0.084159359 -0.032151908 0.4404597
0.086253233 -0.032357913 0.44045025
0.088333264 -0.032560278 0.44037828
0.0903989 -0.032758951 0.4402439
0.091940366 -0.03290616 0.44011185
-0.01674898 -0.021152375 0.44046065
-0.015134557 -0.020793699 0.4407576
-0.012996966 -0.020491211 0.44123977
-0.011432696 -0.020666685 0.44192067
0.069938496 -0.02868019 0.44180343
0.072004788 -0.028877607 0.4416064
0.07408081 -0.029077955 0.44147199
0.076155692 -0.029278144 0.44133753
0.078192942 -0.029468805 0.44101563
0.080380052 -0.030028664 0.44076121
0.082258157 -0.030385677 0.4406305
0.084313728 -0.030581791 0.44043359
0.086400874 -0.030786172 0.44039285
0.088487595 -0.030990414 0.4403522
0.090553187 -0.031189585 0.44021779
0.092450924 -0.031194886 0.44003963
-0.020623837 -0.017603759 0.44042736
-0.014401451 -0.018745691 0.44047028
-0.012838633 -0.0189125 0.44093227
-0.010752201 -0.019142058 0.4417983
0.06754116 -0.026327576 0.44190529
0.068569936 -0.026425544 0.44177559
0.070076868 -0.027101267 0.44168347
0.072148301 -0.027300706 0.44151777
0.074218258 -0.0275 0.44135207
0.07629852 -0.027702108 0.44124889
0.078335442 -0.027893789 0.44092703
0.080388017 -0.028089698 0.44069886
0.082451254 -0.028288329 0.44053319
0.084506534 -0.028485317 0.44033629
0.086606674 -0.028692778 0.44035804
0.088693373 -0.028897241 0.44031739
0.090758912 -0.029097009 0.44018301
0.092286125 -0.029242147 0.43998849
-0.019478811 -0.01666363 0.44053036
-0.012470894 -0.017002141 0.44053474
-0.010541461 -0.017032234 0.44123191
-0.0089728925 -0.017200833 0.44185013
0.065595374 -0.024545714 0.4418886
0.067149729 -0.024695845 0.44175652
0.069217168 -0.024894958 0.44155955
0.070780545 -0.025047272 0.44148999
0.072326489 -0.025195815 0.44132668
0.074407183 -0.02539834 0.4412235
0.076480962 -0.025599575 0.44108906
0.078535371 -0.025796644 0.4408609
0.080575235 -0.025990885 0.44057029
0.082657121 -0.026194261 0.44049838
0.084725335 -0.0263949 0.44036394
0.086812466 -0.026599556 0.44032323
0.08889915 -0.026804119 0.44028258
0.09094359 -0.027000256 0.44005448
0.092426196 -0.027670458 0.43989992
-0.018120961 -0.013626888 0.44034836
-0.011948953 -0.015289849 0.44033742
-0.010331308 -0.014927555 0.44066554
-0.0082405712 -0.015147899 0.44146895
-0.0066160746 -0.014788274 0.44204715
0.065271586 -0.022392672 0.44182482
0.067340344 -0.02259282 0.44162786
0.069407277 -0.022792812 0.44143096
0.070964724 -0.022944309 0.44133013
0.07251583 -0.023094621 0.44119811
0.074590117 -0.023296535 0.44106367
0.076669276 -0.02349936 0.44096044
0.078723148 -0.023697432 0.44073233
0.080762513 -0.02389303 0.44044179
0.082856633 -0.024099063 0.44043234
0.084924616 -0.024300277 0.4402979
0.087004773 -0.024503788 0.44022599
0.089084364 -0.024707269 0.44015408
0.090932257 -0.025060721 0.43990892
-0.0096525289 -0.013406065 0.44041827
-0.0080332737 -0.013045324 0.44099647
-0.006461692 -0.013207854 0.44158334
-0.0050438396 -0.013176857 0.44205344
0.063959435 -0.019613285 0.44181952
0.0654677 -0.020290647 0.4417274
0.067536153 -0.020491693 0.44153047
0.06959191 -0.02069062 0.44127113
0.071137674 -0.020840677 0.44110784
0.072693616 -0.02099248 0.44100705
0.074767314 -0.021194834 0.44087264
0.076845534 -0.021398097 0.44076946
0.078898549 -0.02159714 0.44054136
0.080949515 -0.021796005 0.44031325
0.083030492 -0.021999896 0.44024131
0.085117266 -0.022204846 0.44020066
0.087183721 -0.022406489 0.44006628
0.089073457 -0.022767758 0.44000846
0.090745717 -0.023281906 0.43983984
-0.0073550614 -0.011523452 0.44074914
-0.0062563615 -0.011104885 0.44092327
-0.0046821535 -0.011264504 0.44147879
-0.0027375943 -0.011283248 0.44196734
0.063781396 -0.017828619 0.44179195
0.065658733 -0.018188441 0.44159877
0.067715958 -0.018388744 0.44133943
0.069787137 -0.018591221 0.44117379
0.071332708 -0.018741962 0.4410105
0.072894037 -0.01889503 0.44094095
0.074961729 -0.01909719 0.44077533
0.077039599 -0.019300794 0.44067213
0.07908614 -0.019500019 0.44041282
0.081130236 -0.019699031 0.44015348
0.083210595 -0.019903162 0.4400816
0.085290208 -0.020107348 0.44000971
0.087159902 -0.020465992 0.43985826
-0.0043236678 -0.0093550915 0.44057089
-0.0023816584 -0.0093720919 0.44112197
-0.00043544639 -0.0093888063 0.4416312
0.063795611 -0.015886096 0.44176075
0.065859966 -0.016088448 0.44153264
0.067922235 -0.016290516 0.44130453
0.069987819 -0.016493063 0.44110766
0.071538843 -0.016645208 0.44097564
0.073094472 -0.01679796 0.44087484
0.075161889 -0.017000761 0.44070923
0.07722766 -0.017203476 0.44054359
0.079273514 -0.017403934 0.44028431
0.08113195 -0.017761942 0.44005996
0.083199047 -0.017964913 0.43992558
0.084882081 -0.018481825 0.43979862
-0.0020266525 -0.0074677882 0.44031826
-8.2357787e-05 -0.0074824258 0.44089004
0.0018720119 -0.0074968995 0.44171184
0.062478341 -0.013105707 0.44172421
0.063981883 -0.013784019 0.44160092
0.06604559 -0.013987284 0.44137281
0.068112619 -0.014190881 0.44117597
0.070183121 -0.014394738 0.44101033
0.071744971 -0.014548475 0.44094077
0.073289149 -0.014700628 0.44077751
0.075361997 -0.014904718 0.44064313
0.07739751 -0.015105359 0.44032145
0.079430103 -0.015305791 0.4399997
0.080904514 -0.015978904 0.43978274
6.3224696e-05 -0.0059128348 0.44030142
0.0022229049 -0.0055928905 0.44103327
0.004181582 -0.0056038965 0.44183415
0.060532562 -0.011323801 0.44170749
0.062093306 -0.01147796 0.44160673
0.064158037 -0.011682378 0.44137859
0.066225894 -0.011887031 0.44118175
0.068308167 -0.012092423 0.44107866
0.070389278 -0.012297703 0.44097546
0.072287671 -0.012309542 0.44073486
0.073643133 -0.012795835 0.44069278
0.075544447 -0.012807762 0.44048342
0.077579282 -0.013009919 0.44016168
0.079605021 -0.013211181 0.43980885
0.0028968533 -0.0040736995 0.44081727
0.0044813259 -0.0042247614 0.44131011
0.0060654422 -0.0043769917 0.44167793
0.058586888 -0.0095419046 0.44169077
0.060152713 -0.0096965618 0.44162121
0.062233381 -0.0099024717 0.44148684
0.064302742 -0.010107882 0.44128999
0.066359833 -0.010312676 0.44103071
0.06845744 -0.01051905 0.44102123
0.070521876 -0.010723967 0.44082439
0.072584726 -0.010928736 0.4406276
0.074133456 -0.011082312 0.44049558
0.075669549 -0.011235246 0.44030115
0.077703454 -0.011438369 0.43997949
0.079224043 -0.011590385 0.43972263
0.0029829559 -0.0030336068 0.44005001
0.0046155797 -0.0026603807 0.44050288
0.0067277048 -0.0028602711 0.44108704
0.0086822109 -0.0028700677 0.44151285
0.010480422 -0.0026883204 0.44187403
0.058741748 -0.0079666656 0.44166458
0.060288474 -0.0081213322 0.44147012
0.062348764 -0.0083274227 0.44121087
0.064411812 -0.0085333334 0.44098279
0.066488333 -0.0087392917 0.44084844
0.068574466 -0.0089452919 0.4407765
0.070643336 -0.0091509465 0.44061095
0.07269945 -0.0093561746 0.44038293
0.074599929 -0.009369649 0.44017363
0.075930111 -0.0098549668 0.44000655
0.077618144 -0.010024657 0.43970731
0.0052801687 -0.0011480276 0.44000578
0.0069122035 -0.00077414163 0.4403649
0.0090248045 -0.00097241811 0.44088653
0.011134803 -0.0011737589 0.44122067
0.013085957 -0.0011847103 0.441459
0.01488181 -0.0010031299 0.44169521
0.056899313 -0.0051346119 0.44163045
0.058404468 -0.0058151893 0.44150719
0.060451739 -0.0060228677 0.44115418
0.062515549 -0.0062298332 0.44092613
0.064582333 -0.0064365626 0.44072935
0.066663139 -0.0066429395 0.44062626
0.068742864 -0.0068492852 0.44052309
0.070810594 -0.0070555103 0.44035757
0.072865605 -0.007261687 0.44012952
0.074906863 -0.0074676392 0.43983909
0.076395027 -0.0081446618 0.43968463
0.0093608536 0.00091763528 0.44011447
0.011309965 0.00090944814 0.44043612
0.013425616 0.00071207504 0.44089517
0.015011664 0.00056250871 0.4411692
0.016442789 0.00060505699 0.44145152
0.018245313 0.00078899227 0.441771
0.054609127 -0.0031441092 0.44152915
0.056497458 -0.0035097292 0.44138804
0.058555067 -0.0037185708 0.44109756
0.060614813 -0.0039269431 0.44083831
0.062687032 -0.0041344333 0.44067276
0.064757861 -0.0043417169 0.44050717
0.066827096 -0.0045488374 0.44034165
0.068900228 -0.0047557401 0.4402073
0.070949912 -0.0049630497 0.43994808
0.072815485 -0.0053271558 0.43974462
0.07450904 -0.0058475132 0.4396593
0.013757352 0.0026008957 0.4401857
0.015183307 0.0026441067 0.44044721
0.016774388 0.0024979629 0.44081494
0.018899806 0.0023027123 0.44130519
0.021013979 0.0021016388 0.44154555
0.023173843 0.0024229221 0.44165224
0.049960252 -0.0002106512 0.4415938
0.051309593 -0.00070046168 0.44146842
0.05267518 -0.0011881548 0.44146791
0.054586757 -0.0012056357 0.44123778
0.056663137 -0.0014142138 0.44107217
0.05872862 -0.0016234522 0.44084415
0.060787279 -0.0018329984 0.44058493
0.062843464 -0.002042226 0.44032571
0.064897306 -0.0022513028 0.44006652
0.066964574 -0.002458985 0.43990099
0.068837009 -0.0028237393 0.43972874
0.070531391 -0.0033445833 0.43964341
0.015315579 0.0042033386 0.43998387
0.017104698 0.004385774 0.44017839
0.019065501 0.0043825586 0.44058317
0.02118247 0.0041854298 0.44091731
0.023296461 0.0039855801 0.44115767
0.025245123 0.0039741704 0.44126055
0.027556302 0.0041015269 0.44128609
0.029660359 0.0038966283 0.44133908
0.031786807 0.0036979739 0.44164187
0.033362236 0.0035429753 0.44163474
0.034937665 0.0033879767 0.44162762
0.037025787 0.0031783185 0.44149327
0.039132331 0.0029731751 0.44154623
0.041225668 0.0027651135 0.44147429
0.043325655 0.0025585061 0.44146481
0.045425646 0.0023518982 0.44145533
0.047666173 0.0017780205 0.44145086
0.04955782 0.0014111213 0.44132018
0.051644757 0.0012027854 0.44121706
0.05320619 0.0010461509 0.4411163
0.054758102 0.00088834343 0.44095311
0.056824043 0.00067793066 0.44072512
0.058869191 0.00046557002 0.44037223
0.060920812 0.00025453139 0.44008183
0.062979691 4.4888817e-05 0.43985391
0.064865477 -0.00031969789 0.43975446
0.066553824 -0.00084165297 0.43962753
0.019698028 0.0058798427 0.43980527
0.021488771 0.0060631279 0.43999979
0.023440015 0.0060557071 0.44021723
0.025552358 0.0058572255 0.44045755
0.027671695 0.0056603104 0.44076034
0.029783776 0.0054595238 0.44093823
0.031894825 0.0052577751 0.44108489
0.033476904 0.0051055867 0.44117144
0.035050776 0.0049508973 0.44116431
0.037143029 0.00474279 0.4410924
0.039247748 0.0045379782 0.44114536
0.041349683 0.0043323096 0.44116715
0.043451834 0.0041266186 0.44118884
0.045550629 0.0039201286 0.44117936
0.047637634 0.0037112571 0.44107625
0.049715899 0.003501059 0.4409107
0.051805198 0.0032930947 0.44083878
0.053724643 0.0032751728 0.44068155
0.055070337 0.0027854145 0.44055614
0.056966417 0.0027642935 0.44025323
0.058999915 0.0025490876 0.43983799
0.060484592 0.0018670573 0.43962109
0.023563966 0.0076110405 0.43975395
0.025665063 0.0074094669 0.43986943
0.027776975 0.007211972 0.4401097
0.030078894 0.0073375246 0.44009373
0.032028988 0.0073282439 0.44023824
0.034137681 0.0071273209 0.44038489
0.035708848 0.0069727432 0.4403778
0.037286337 0.0068202382 0.44043314
0.0393782 0.0066131568 0.44039249
0.041473325 0.0064071291 0.44038302
0.043571949 0.00620203 0.44040474
0.045682088 0.0059996662 0.44052014
0.047777824 0.0057935519 0.44051066
0.049865615 0.0055855238 0.44043878
0.051969465 0.0053810827 0.44049177
0.054043461 0.0051704673 0.44032627
0.055931773 0.0051462003 0.43997133
0.057066154 0.0043252134 0.43985254
0.058598507 0.0041641672 0.43959576
0.032658912 0.0088278931 0.43967903
0.034239389 0.0086780936 0.43979684
0.035820752 0.0085282065 0.43991458
0.037384082 0.0083715506 0.43984509
0.039496399 0.0081723724 0.44002292
0.041582938 0.007964191 0.43995103
0.043683194 0.007760454 0.44000399
0.04578419 0.0075565963 0.44005701
0.047719497 0.0077114245 0.43989691
0.049982365 0.0076570869 0.43971729
0.052056778 0.0069366191 0.4399662
0.054132659 0.0067266389 0.43983191
0.055666693 0.0065642726 0.43957514
0.022871282 -0.11952797 0.44385895
0.024972718 -0.11973473 0.44384944
0.027083825 -0.11997348 0.44396544
0.029144473 -0.1207378 0.44409019
0.031260591 -0.12098508 0.4442375
0.033378299 -0.12123253 0.44438481
0.035482366 -0.12143954 0.44437531
0.037393831 -0.12180459 0.44436955
0.038835298 -0.12160279 0.44439921
0.040712263 -0.12188365 0.44406933
0.042632535 -0.12184137 0.44383815
0.044403844 -0.12163091 0.44369891
0.01831568 -0.11756502 0.44416779
0.019700367 -0.11787809 0.44416437
0.021155244 -0.11773841 0.44444498
0.023072898 -0.11812478 0.44452283
0.025184477 -0.11835533 0.44460741
0.02730415 -0.11860975 0.4447861
0.02942051 -0.11884854 0.44490209
0.031543538 -0.11910301 0.44508076
0.033665471 -0.11935014 0.44522801
0.035572544 -0.11969462 0.44513857
0.036839962 -0.11969328 0.44533917
0.039090462 -0.12005109 0.4451645
0.041006997 -0.11998823 0.44484976
0.043067787 -0.12009198 0.44443253
0.04512462 -0.12019486 0.44401535
0.014252854 -0.11551272 0.44390962
0.01585082 -0.11577002 0.44432074
0.017900158 -0.11588752 0.44484347
0.019637708 -0.11582679 0.44519451
0.021159172 -0.11647888 0.44507068
0.023287674 -0.11676348 0.44537479
0.025401263 -0.11698646 0.44542804
0.027525013 -0.11724052 0.44560668
0.029635103 -0.11744812 0.44559717
0.041768298 -0.11864185 0.44554237
0.043537538 -0.1184108 0.4453195
0.045460843 -0.11836765 0.4450779
0.04741697 -0.11889569 0.44426182
0.049588937 -0.11860915 0.44436905
0.051473342 -0.11892091 0.4441542
0.053660691 -0.11938986 0.44373164
0.0097304899 -0.11294589 0.44389603
0.011981679 -0.11357079 0.44410068
0.013847065 -0.11375754 0.44470906
0.015586531 -0.11387686 0.44537544
0.046195872 -0.11694751 0.44548824
0.047947604 -0.11668567 0.44514003
0.049900346 -0.11670531 0.44514924
0.052044746 -0.11716744 0.44485602
0.053827498 -0.11764431 0.44432771
0.055935286 -0.11805204 0.44382137
0.058070756 -0.11770234 0.44367769
0.0596283 -0.11782601 0.44354519
0.0057336818 -0.11043125 0.44388005
0.007792131 -0.11122213 0.44413021
0.010060252 -0.11129995 0.44486776
0.011845982 -0.1120214 0.44507679
0.054399513 -0.11588244 0.4450044
0.056226786 -0.11609638 0.44438207
0.057755392 -0.11616709 0.44403011
0.059300188 -0.11626796 0.44380349
0.061201233 -0.11621319 0.44350973
0.0039821779 -0.10851891 0.44398507
0.0059040822 -0.10897736 0.44438702
0.0080295354 -0.10932829 0.44500479
0.0095707271 -0.1100911 0.44535142
0.055655893 -0.1142802 0.44517946
0.057531931 -0.11417077 0.44465578
0.05956332 -0.11425688 0.44414476
0.061604463 -0.11436525 0.4437277
0.063515544 -0.11432899 0.44350713
0.065294296 -0.11414065 0.44345158
-0.00068576168 -0.10552831 0.44371551
0.0010367455 -0.10612559 0.44404802
0.002426249 -0.10648973 0.44427457
0.0040167198 -0.10675745 0.44476923
0.0055567259 -0.10753917 0.44520998
0.057972342 -0.1123785 0.44513491
0.059864633 -0.11230091 0.44473663
0.061869554 -0.1123521 0.44406891
0.0639235 -0.11248503 0.44374597
0.066000357 -0.11265427 0.44357976
0.067917779 -0.11263151 0.44341141
0.069703177 -0.11245352 0.44339767
-0.0025791787 -0.10324817 0.44381556
-0.0010496397 -0.10400328 0.44416213
0.0010688836 -0.10439563 0.4449994
0.0026014196 -0.10512047 0.44518921
0.058527477 -0.11070494 0.44531304
0.060114514 -0.11025995 0.44498372
0.062125254 -0.11032124 0.44434732
0.064180575 -0.11045555 0.44402441
0.066248469 -0.11061114 0.44379553
0.068319522 -0.11077432 0.443598
0.070240125 -0.1107568 0.4434506
0.072010823 -0.11055966 0.44335327
-0.0044743344 -0.10093982 0.44379014
-0.0029445738 -0.10173378 0.44432485
-0.00088063721 -0.10264945 0.44517082
0.060496092 -0.1083686 0.44505525
0.062386155 -0.10829463 0.44465703
0.064432912 -0.10841557 0.4442715
0.066507205 -0.10858008 0.44407395
0.068579711 -0.10874413 0.44387642
0.07063932 -0.10889342 0.44361621
0.072548129 -0.1088623 0.44340616
-0.0048424564 -0.09940289 0.44420528
-0.0033110334 -0.100229 0.44489676
0.062647432 -0.10626449 0.44496673
0.064690486 -0.10638095 0.44454983
0.066766284 -0.10654604 0.4443523
0.068845488 -0.10671805 0.44418612
0.070890099 -0.10684758 0.44383195
0.072931468 -0.10697678 0.44347778
-0.0062135416 -0.097182065 0.44436556
-0.0048239687 -0.097649217 0.4451147
0.063039616 -0.10438563 0.44510087
0.064928219 -0.10431539 0.44470277
0.066989034 -0.1044609 0.44441128
0.069084696 -0.10465439 0.44433913
0.071135662 -0.10479244 0.44401628
0.073172271 -0.10491646 0.44363081
0.074628443 -0.10551373 0.44325641
-0.0067249653 -0.09520112 0.44442028
0.063619286 -0.10213931 0.44508219
0.065155797 -0.10223462 0.44479308
0.067211792 -0.10237479 0.44447023
0.069291733 -0.1025484 0.44430411
0.071364723 -0.10271502 0.44410658
0.073224291 -0.10301694 0.44380835
0.075166181 -0.10381575 0.44330934
0.076936118 -0.10361956 0.443212
-0.0083399788 -0.09352722 0.44390318
-0.0068520959 -0.093015216 0.44505274
0.063816667 -0.10001676 0.4449845
0.065368116 -0.10013302 0.44478935
0.067372419 -0.10080139 0.44447529
0.069436282 -0.10095565 0.44421515
0.071519822 -0.10113624 0.44408032
0.073697537 -0.10163113 0.44369996
0.075538546 -0.10191568 0.44331828
0.077091023 -0.10204387 0.44318581
-0.0099028163 -0.091423444 0.44385818
-0.0083279684 -0.091727905 0.4446348
0.063972183 -0.098434806 0.44495818
0.06552358 -0.09855172 0.44476303
0.067506619 -0.099195287 0.44432372
0.069580704 -0.099363394 0.44412628
0.071664043 -0.099544376 0.44399145
0.073734686 -0.099712178 0.44379398
0.075762622 -0.099833831 0.44337726
0.077822864 -0.09999463 0.44314849
-0.01174644 -0.088577203 0.44376126
-0.010226146 -0.089385428 0.44445258
-0.008702429 -0.090219848 0.44526929
0.063800015 -0.096650861 0.44497228
0.065658309 -0.096945062 0.44461143
0.067697808 -0.097069904 0.4441947
0.069776833 -0.097245246 0.44402862
0.07187096 -0.097439587 0.44395646
0.073941529 -0.097608268 0.44375899
0.075992778 -0.097757503 0.44346762
0.078041382 -0.097906604 0.44317624
-0.013642138 -0.086268276 0.44373581
-0.012122326 -0.087033458 0.44420761
-0.010600364 -0.08781191 0.44474214
0.063807718 -0.094691671 0.44489917
0.065865524 -0.094837278 0.44457638
0.067894243 -0.094951637 0.44409707
0.069967404 -0.095121488 0.44389966
0.072066717 -0.095322326 0.44385883
0.074148357 -0.095504388 0.44372401
0.07622315 -0.095680058 0.44355789
0.078247957 -0.095805362 0.44314128
-0.014871296 -0.08437866 0.44371298
-0.013496492 -0.08480116 0.44433647
-0.012116461 -0.085210443 0.4448764
0.062111624 -0.092232428 0.44495341
0.063979879 -0.092540272 0.44464484
0.066036724 -0.092687242 0.44432211
0.068074584 -0.092815883 0.44390547
0.070147052 -0.092986457 0.44370803
0.072251171 -0.093193471 0.44369853
0.074343748 -0.093388289 0.44362637
0.076429904 -0.09357696 0.4435229
0.078454524 -0.093704179 0.44310635
-0.016376961 -0.081711538 0.44342938
-0.014863735 -0.082498305 0.44405785
-0.013298642 -0.082803003 0.44492835
0.060601726 -0.089605853 0.44496217
0.062103119 -0.090253934 0.44477591
0.064162031 -0.090402663 0.44445321
0.066212766 -0.090545177 0.44409919
0.068270862 -0.090699181 0.44380781
0.070353881 -0.090882599 0.44367304
0.072441086 -0.091071844 0.4435696
0.07453908 -0.091272816 0.4435288
0.076612875 -0.091449931 0.44336274
0.078456715 -0.091748856 0.44301248
-0.016562106 -0.079981379 0.44373617
-0.014859321 -0.080642521 0.44456983
0.060416501 -0.087805532 0.44489279
0.062290877 -0.088122137 0.44461554
0.0643389 -0.088260852 0.44423026
0.0663938 -0.088410668 0.44390759
0.068467073 -0.088583224 0.44371024
0.070544213 -0.088761367 0.44354418
0.072625317 -0.088945225 0.44340938
0.074711055 -0.089134678 0.44330594
0.076778054 -0.08930672 0.44310859
0.078278624 -0.089963675 0.44298494
-0.018065041 -0.077303052 0.44336897
-0.016554937 -0.078088492 0.44402871
-0.014994767 -0.078399442 0.44499308
0.060418047 -0.085839637 0.44477794
0.062473558 -0.085985988 0.44442391
0.064515688 -0.086120769 0.44400737
0.066574834 -0.086277597 0.44371602
0.06864728 -0.086450979 0.44351864
0.070734449 -0.086641036 0.44341522
0.072826453 -0.086836666 0.4433431
0.074894503 -0.087009721 0.44314572
0.076447487 -0.087142207 0.4430134
-0.017964918 -0.076272175 0.44347689
-0.016361291 -0.076081768 0.44462049
0.059043378 -0.083574764 0.44474998
0.060568139 -0.083665527 0.44436714
0.06263151 -0.083824135 0.44407579
0.064687245 -0.083977036 0.44375312
0.06656646 -0.084307604 0.44354901
0.068797052 -0.084867828 0.44346112
0.070878558 -0.085052781 0.44332635
0.072970077 -0.085248604 0.44325426
0.075037897 -0.085422255 0.44305691
-0.018147077 -0.074511856 0.44361648
-0.016738145 -0.074483104 0.44481593
0.058704577 -0.081392579 0.44459203
0.060704481 -0.082063645 0.44421557
0.062772125 -0.082228534 0.44395557
0.064827144 -0.082382552 0.44363299
0.067041121 -0.082925394 0.44344074
0.068941303 -0.083279595 0.44337225
0.071028106 -0.083470359 0.44326887
0.0731024 -0.083650135 0.44310281
0.075181127 -0.083835207 0.4429681
-0.019649845 -0.071843967 0.44329113
-0.018143553 -0.072630577 0.44401345
0.057814911 -0.079717487 0.44463316
0.059331201 -0.079801306 0.44418767
0.060840562 -0.080462888 0.44406408
0.062907524 -0.080628619 0.44380409
0.064972095 -0.080794081 0.44354415
0.067050099 -0.080974922 0.44337812
0.069126479 -0.081155658 0.44321209
0.071218148 -0.081352033 0.44313997
0.073297732 -0.08153782 0.44300526
0.074862391 -0.081682406 0.44293556
-0.01950031 -0.070295036 0.44345292
-0.017946836 -0.070584513 0.44438577
0.05640645 -0.078000188 0.44473919
0.057956591 -0.078120813 0.44451287
0.059823386 -0.078046799 0.44394818
0.061173812 -0.078515723 0.44382247
0.063074887 -0.078483105 0.44351864
0.065148294 -0.078659765 0.44332129
0.067235775 -0.078851506 0.44321793
0.06932243 -0.079043068 0.44311449
0.071424805 -0.079249911 0.44310501
0.073492832 -0.07942605 0.44290772
0.075005695 -0.080096103 0.44284672
-0.019302504 -0.068236522 0.44373131
-0.017936757 -0.068659931 0.44452152
0.05454722 -0.075146027 0.44464231
0.056055181 -0.0758048 0.44448736
0.058136337 -0.075983122 0.44429001
0.060172908 -0.076117396 0.44381097
0.061742548 -0.076263033 0.44374123
0.06328173 -0.076379187 0.44348365
0.06535504 -0.076556742 0.44328633
0.067437172 -0.076743983 0.44315165
0.069529086 -0.076940991 0.44307953
0.071631461 -0.077147834 0.44307005
0.07351087 -0.077486031 0.44289735
-0.019428797 -0.065923505 0.44369504
-0.018064538 -0.066345222 0.44450602
0.054685324 -0.073545344 0.44449073
0.056249034 -0.073682256 0.44435841
0.058320355 -0.073851913 0.4440985
0.060379893 -0.074011996 0.44377595
0.061949503 -0.074157923 0.44370621
0.063483521 -0.074270591 0.44341737
0.065551586 -0.074444205 0.44318876
0.067643866 -0.074641556 0.44311669
0.069735743 -0.074838862 0.44304457
0.071832471 -0.075040922 0.4430038
0.073369272 -0.075162321 0.44277757
-0.019418877 -0.063998275 0.44382036
-0.017863596 -0.06427028 0.44472161
0.054365274 -0.07138484 0.4444581
0.056438357 -0.07155598 0.44419816
0.058513694 -0.071731433 0.44396955
0.06058687 -0.071906611 0.44374096
0.062156454 -0.072052807 0.44367123
0.063690364 -0.072166748 0.44338238
0.065758303 -0.072341546 0.4431538
0.067850545 -0.072539188 0.44308174
0.069936916 -0.07273218 0.44297835
0.072005495 -0.072911046 0.44278109
-0.020718342 -0.061132733 0.44312596
-0.019218951 -0.061925218 0.44403592
-0.017715806 -0.062728174 0.44500852
0.054563861 -0.069267362 0.44436044
0.056636561 -0.069439672 0.4441005
0.05870682 -0.069611698 0.44384062
0.060789093 -0.06979683 0.44367465
0.062353536 -0.069938965 0.44357362
0.06391219 -0.070076413 0.4434413
0.065965012 -0.070238858 0.44311884
0.068041243 -0.07042338 0.4429529
0.070127122 -0.070616767 0.44284955
0.071681224 -0.070753783 0.44271719
-0.020567343 -0.059571858 0.44322506
-0.019020498 -0.059857044 0.44431412
0.053232223 -0.067045622 0.44464546
0.054766737 -0.067154758 0.44429407
0.056834575 -0.067323975 0.44400287
0.058904469 -0.067497209 0.44374302
0.060991284 -0.067687325 0.44360834
0.062550582 -0.067825481 0.44347602
0.064103983 -0.067959338 0.44331244
0.066171736 -0.068136141 0.44308385
0.068237305 -0.068312764 0.44285536
0.069786519 -0.06844613 0.44269177
-0.020412397 -0.057995778 0.44319886
-0.019332748 -0.057666369 0.44399965
0.053431109 -0.06492769 0.44454777
0.054969586 -0.065042451 0.44422773
0.057041705 -0.065217093 0.44396785
0.059088141 -0.065371007 0.44355154
0.06118853 -0.065573953 0.44351074
0.062737733 -0.06570442 0.44331586
0.06430573 -0.065851413 0.44324616
0.066179007 -0.06618578 0.44301093
0.068386964 -0.066732302 0.44279787
0.069941424 -0.066870436 0.44266555
-0.020261168 -0.056433577 0.44329789
-0.019182749 -0.056108132 0.44416124
0.053098176 -0.062754415 0.44442123
0.054978132 -0.063087448 0.44415462
0.057178903 -0.063621022 0.44381642
0.059238702 -0.063788228 0.44349402
0.061324388 -0.063979283 0.44335935
0.062892854 -0.064126544 0.44328961
0.064440563 -0.06425757 0.44309476
0.066646434 -0.064802401 0.44286087
0.068536527 -0.065152086 0.44274038
0.070096329 -0.065294802 0.44263935
-0.020058267 -0.054344773 0.44338816
-0.019032605 -0.054548398 0.44432285
0.051692534 -0.061035931 0.44455853
0.053240974 -0.061161142 0.44430101
0.055444095 -0.061696276 0.44396281
0.057320606 -0.062029719 0.44369626
0.059389126 -0.062205814 0.44343644
0.061450455 -0.062377803 0.44314539
0.063018233 -0.062525205 0.44307566
0.064575404 -0.06266471 0.44294339
0.066651963 -0.062851824 0.44277751
0.068732373 -0.063042827 0.44264284
0.070828184 -0.06324555 0.44260204
-0.019853398 -0.052248415 0.44341582
-0.018833905 -0.052473098 0.44460091
0.051831506 -0.059438754 0.44440705
0.053375166 -0.059561249 0.44411835
0.055434842 -0.059727829 0.44376463
0.057504859 -0.059905306 0.44350487
0.059567761 -0.060078733 0.44321376
0.061637778 -0.060259499 0.44298527
0.063195162 -0.060399562 0.442853
0.064766817 -0.060550932 0.44281459
0.066837728 -0.060735021 0.44261739
0.068933591 -0.0609379 0.44257662
0.070842408 -0.061302472 0.44257084
-0.019657478 -0.050181795 0.44375661
0.051498942 -0.057267047 0.44428048
0.053539604 -0.057417862 0.44377038
0.055610947 -0.057596572 0.44351062
0.057679832 -0.057775136 0.44325086
0.059760522 -0.057964161 0.44308493
0.061834726 -0.05814952 0.44288772
0.063401826 -0.058297433 0.44281805
0.064968325 -0.058445301 0.44274837
0.067038991 -0.058630295 0.44255117
0.068947814 -0.058994867 0.44254535
0.070664316 -0.059517294 0.4425433
-0.019966066 -0.047993653 0.44337958
0.051681381 -0.055138003 0.4440577
0.053725183 -0.055294357 0.44357896
0.055804528 -0.05548108 0.44338179
0.057882126 -0.055667624 0.44318455
0.059976697 -0.055867758 0.44311249
0.06205111 -0.056054018 0.44291535
0.063608482 -0.056195356 0.44278309
0.065174952 -0.0563435 0.44271341
0.067245536 -0.056529362 0.44251621
0.068821371 -0.056684397 0.44250908
-0.019758426 -0.045887791 0.4433133
0.051863652 -0.053010598 0.44383499
0.053927921 -0.053185452 0.44351268
0.056002535 -0.053369846 0.44328424
0.058079675 -0.053557202 0.44308704
0.060169347 -0.053754359 0.44298372
0.062248103 -0.053944696 0.44281781
0.064330555 -0.054138295 0.44268319
0.065896809 -0.054286744 0.44261357
0.067259766 -0.054586314 0.44248497
-0.019396666 -0.043985769 0.44338483
-0.017956017 -0.043521654 0.44457713
0.050559565 -0.050800383 0.44433883
0.052066661 -0.05090047 0.44376868
0.05412627 -0.05107373 0.44341511
0.056200493 -0.051259056 0.4431867
0.058286484 -0.051453583 0.44305208
0.060361758 -0.05164174 0.44285485
0.062445026 -0.051835969 0.44272029
0.064532161 -0.05203335 0.442617
0.066082686 -0.052172497 0.44245347
-0.018821396 -0.041738521 0.44330364
-0.017789695 -0.041905638 0.44411263
0.050758816 -0.048684902 0.44424123
0.052273788 -0.048793565 0.44373363
0.054337613 -0.048971392 0.44341138
0.056407355 -0.049154866 0.44315171
0.058493286 -0.04934999 0.44301707
0.060568478 -0.049539015 0.44281989
0.062636919 -0.049724925 0.44259152
0.064718448 -0.04991962 0.44245696
0.066237591 -0.050596856 0.44242728
-0.018606286 -0.03961223 0.44295564
-0.017055225 -0.039850216 0.44407523
0.050966181 -0.046575606 0.44420615
0.052485157 -0.046689451 0.44372985
0.05454459 -0.046866033 0.44337639
0.056614213 -0.047050647 0.44311669
0.058700092 -0.047246393 0.44298211
0.060765535 -0.047430631 0.44272244
0.062838547 -0.047620341 0.44252533
0.064727627 -0.04797348 0.44239441
-0.018446399 -0.038022719 0.44274166
-0.016896937 -0.038261015 0.44392371
0.051173538 -0.044466369 0.44417107
0.052700803 -0.044587694 0.44375736
0.054708481 -0.045292355 0.44341266
0.056769367 -0.045472525 0.44309044
0.058855198 -0.045668669 0.44295588
0.060920551 -0.04585382 0.44269621
0.062993497 -0.046044257 0.44249913
0.065074854 -0.046239957 0.44236448
-0.016729925 -0.036645766 0.44336551
0.051329065 -0.042884361 0.44414479
0.052877348 -0.043019854 0.44388744
0.054863736 -0.043713085 0.44338638
0.056929003 -0.043896914 0.44309548
0.059019715 -0.044096202 0.44299215
0.061089985 -0.044284865 0.44276378
0.063153453 -0.044470686 0.4425042
0.065234847 -0.044666868 0.44236961
-0.016362488 -0.034727108 0.44321793
-0.014964079 -0.034761123 0.44435593
0.051484581 -0.041302454 0.44411847
0.053028502 -0.041436452 0.44382989
0.055070747 -0.041607395 0.44335139
0.057149518 -0.04179994 0.44315428
0.059226543 -0.041992329 0.44295716
0.061311331 -0.042189471 0.44282261
0.063379943 -0.042378951 0.44259426
0.065451592 -0.042570822 0.44239718
0.067012124 -0.042718373 0.44229627
-0.015782291 -0.032466374 0.44288641
-0.014221167 -0.032677226 0.44384915
0.051172681 -0.039145812 0.4441483
0.053223014 -0.039321706 0.44370106
0.055277757 -0.039501712 0.44331637
0.057356432 -0.039695174 0.44311929
0.05942864 -0.039886162 0.44289091
0.061503515 -0.040079221 0.44269386
0.063586608 -0.040276777 0.4425593
0.065658167 -0.040469535 0.44236225
0.067167021 -0.041142739 0.44227007
-0.013845878 -0.030729324 0.44318011
-0.012387566 -0.030220015 0.44420493
0.049322125 -0.036301263 0.44411394
0.051351272 -0.037021656 0.44389436
0.053417288 -0.037207913 0.44357219
0.055480387 -0.037393931 0.44325009
0.057563361 -0.037590362 0.44308427
0.059630711 -0.037780207 0.44282469
0.061700523 -0.037972011 0.44259638
0.063768163 -0.038163651 0.44236809
0.065797746 -0.038886815 0.44224223
-0.013267515 -0.028471904 0.4428696
-0.0118598 -0.02848338 0.44388217
0.047568753 -0.034356855 0.44415599
0.049465679 -0.034713313 0.44399387
0.051537875 -0.034903273 0.443703
