# .PCD v0.7 - Point Cloud Data file format
VERSION 0.7
FIELDS x y z
SIZE 4 4 4
TYPE F F F
COUNT 1 1 1
WIDTH 1675
HEIGHT 1
VIEWPOINT 0 0 0 1 0 0 0
POINTS 1675
DATA ascii
1.60322 0.29499999 2.6676199
1.18398 0.30374098 2.66013
1.19512 0.300946 2.66363
1.20577 0.30307832 2.6636267
1.21281 0.30695999 2.6603799
1.5845633 0.30514932 2.6631668
1.594835 0.30421501 2.66431
1.60298 0.30328104 2.6654532
1.61282 0.30779701 2.6676199
1.18223 0.31369501 2.6633699
1.21925 0.31335601 2.6605
1.22568 0.31975201 2.66062
1.68805 0.33628249 2.665185
1.66237 0.34584701 2.665
1.68162 0.34586301 2.6651199
1.6687599 0.35223901 2.665
1.67515 0.35223901 2.665
1.43628 -1.214045 2.6724999
1.4444799 -1.2155499 2.6758151
1.45269 -1.21385 2.6791301
1.4744251 -1.2164299 2.6777501
1.43628 -1.20443 2.6724999
1.44633 -1.20748 2.67925
1.43628 -1.19802 2.6724999
1.43628 -1.17238 2.6724999
1.43803 -1.16739 2.67575
1.43161 -1.15455 2.67575
1.42339 -1.14028 2.67237
1.43248 -1.145625 2.6773748
1.42512 -1.13525 2.6756301
1.4169199 -1.1274101 2.67225
1.424255 -1.1249399 2.674
1.43335 -1.12383 2.6789999
1.42987 -1.1146899 2.6724999
1.43628 -1.1050749 2.6724999
1.3840899 -0.927127 2.67694
1.40751 -0.92454499 2.67875
1.39466 -0.91811901 2.67875
1.40109 -0.91811901 2.67875
1.79541 -0.601937 2.67275
1.8342201 -0.60846102 2.67325
1.8635899 -0.5142653 2.6724567
1.8717749 -0.51523304 2.6719401
1.8535399 -0.50589401 2.6733699
1.87296 -0.50594097 2.67362
1.85129 -0.48606601 2.67013
1.86329 -0.48027849 2.6735601
1.87296 -0.48349649 2.67362
1.86654 -0.47387701 2.67362
1.87296 -0.47387701 2.67362
1.3750651 -0.463954 2.67188
1.3849599 -0.46512601 2.6786301
1.4237101 -0.468404 2.6789999
1.86646 -0.46423602 2.6735001
1.8750967 -0.46318865 2.67362
1.37526 -0.455468 2.6784999
1.87287 -0.45461699 2.6735001
1.36711 -0.44206101 2.6751201
1.37526 -0.44904301 2.6784999
1.36538 -0.42227799 2.6717501
1.86646 -0.422555 2.6735001
1.87498 -0.42871648 2.6719351
1.37353 -0.41639501 2.6751201
1.8471299 -0.416123 2.6733699
1.8535399 -0.416123 2.6733699
1.8600399 -0.41614199 2.6735001
1.37186 -0.40627649 2.67188
1.37186 -0.39666301 2.67188
1.38168 -0.38479799 2.6784999
1.3864551 -0.37471849 2.6753149
1.3946 -0.371966 2.6786301
1.3952351 -0.36486751 2.6736851
1.4058 -0.36511499 2.6754999
1.39756 -0.358228 2.6719999
1.4048851 -0.35525849 2.6737499
1.41308 -0.35570651 2.677125
1.414 -0.34629899 2.67887
1.40751 -0.333433 2.67875
1.414 -0.339874 2.67887
1.3929 -0.320178 2.67537
1.40109 -0.327007 2.67875
1.37186 -0.30053401 2.67188
1.36545 -0.29412499 2.67188
1.3589799 -0.28449899 2.6717501
1.3589799 -0.27488601 2.6717501
1.36538 -0.26847801 2.6717501
1.36228 -0.140652 2.6782501
1.35586 -0.13422801 2.6782501
1.34773 -0.121228 2.67488
1.33963 -0.114667 2.6715
1.342135 -0.10525 2.6764998
1.33322 -0.095443703 2.6715
1.34295 -0.095680401 2.6781199
1.32675 -0.082624398 2.67138
1.33403 -0.085882403 2.673125
1.34295 -0.089256801 2.6781199
1.32438 -0.076265052 2.6730652
1.29459 -0.063396104 2.6711199
1.3046451 -0.066621125 2.67203
1.3147299 -0.066644348 2.6729999
1.3227799 -0.066726848 2.6763101
1.33004 -0.069982603 2.678
1.28812 -0.05378335 2.671
1.29459 -0.053785853 2.6711199
1.30343 -0.053884599 2.676125
1.31392 -0.057133302 2.677875
1.28812 -0.044173501 2.671
1.29459 -0.044175599 2.6711199
1.27531 -0.031360399 2.671
1.2849134 -0.035657499 2.6732066
1.26878 -0.0249516 2.6707499
1.27841 -0.0250146 2.6775
1.28484 -0.0250146 2.6775
1.26878 -0.0185456 2.6707499
1.275995 -0.015354401 2.6724348
1.2849134 -0.014291567 2.6732066
1.2945299 -0.01538215 2.6776199
1.28492 -0.00573427 2.671
1.29616 -0.0057415199 2.6743801
1.2853125 0.0038776915 2.6718125
1.2977999 0.0038853334 2.6777501
1.288905 0.01669685 2.6726251
1.2977999 0.0167308 2.6777501
1.29616 0.0263317 2.6743801
1.29459 0.035909899 2.6711199
1.30422 0.052055798 2.6777501
1.31065 0.058478601 2.6777501
1.31387 0.064743698 2.6712501
1.29132 0.103433 2.6776199
1.25103 0.125735 2.6738801
1.25103 0.135355 2.6738801
1.24951 0.141596 2.67062
1.25597 0.148009 2.6707499
1.26238 0.154415 2.6707499
1.5975 0.225164 2.6741199
1.626555 0.2316055 2.6744399
1.636255 0.23482001 2.6745651
1.6447001 0.238326 2.67788
1.64064 0.24414399 2.6712501
1.6245451 0.256946 2.6711199
1.62339 0.263686 2.6745
1.59429 0.29571849 2.67413
1.6169 0.295746 2.6743801
1.19163 0.30808499 2.67013
1.2042201 0.30884999 2.6767499
1.58916 0.30176601 2.6708801
1.6169 0.30216101 2.6743801
1.62331 0.30857599 2.6743801
1.19459 0.31527001 2.6767499
1.21561 0.3148945 2.6735649
1.185895 0.3242805 2.6716251
1.22681 0.32172 2.677
1.23323 0.328141 2.677
1.6858 0.32749799 2.6717501
1.1895601 0.33492199 2.6798699
1.6858 0.33390599 2.6717501
1.67939 0.34672299 2.6717501
1.6858 0.34031501 2.6717501
1.4869 -1.22198 2.6828699
1.44809 -1.20251 2.6824999
1.456315 -1.2072101 2.6858149
1.4642401 -1.209 2.6826301
1.45166 -1.1958051 2.6891301
1.45166 -1.18613 2.6891301
1.45166 -1.176455 2.6891301
1.44165 -1.1639 2.6824999
1.4434 -1.15887 2.68575
1.43696 -1.13632 2.68575
1.44578 -1.1163449 2.684185
1.37699 -0.93205601 2.68187
1.41572 -0.93214297 2.6821301
1.37547 -0.92676651 2.68519
1.38355 -0.92285103 2.6862934
1.39161 -0.92034698 2.68525
1.38684 -0.91501302 2.6884999
1.39329 -0.91501302 2.6884999
1.85822 -0.50074297 2.68012
1.86578 -0.50426048 2.6817451
1.8732533 -0.50289327 2.6801631
1.86374 -0.4949255 2.683435
1.87552 -0.49463701 2.681875
1.86691 -0.488478 2.6833701
1.87117 -0.48790899 2.6802499
1.4192801 -0.47013101 2.68887
1.3948901 -0.46629849 2.68537
1.4345701 -0.46663249 2.687315
1.38516 -0.456615 2.68525
1.38039 -0.444271 2.6884999
1.42401 -0.44379601 2.6856301
1.43045 -0.44379601 2.6856301
1.37049 -0.433507 2.6817501
1.37866 -0.42439201 2.6851299
1.38684 -0.392683 2.6884999
1.40455 -0.37290299 2.68537
1.4151399 -0.37314647 2.687125
1.4157799 -0.366036 2.68225
1.4239399 -0.36647901 2.6854999
1.423115 -0.3566075 2.6839399
1.42487 -0.34415698 2.6872501
1.4192801 -0.33469301 2.68887
1.39635 -0.314538 2.6819999
1.3866401 -0.30487451 2.68187
1.37699 -0.29522601 2.68187
1.37049 -0.28878 2.6817501
1.36743 -0.134736 2.68837
1.36092 -0.125058 2.6882501
1.35277 -0.115241 2.68488
1.35277 -0.105581 2.68488
1.35277 -0.095921598 2.68488
1.34627 -0.083038099 2.6847501
1.35447 -0.0895942 2.6882501
1.33899 -0.073330596 2.6830649
1.34796 -0.076694801 2.6881199
1.33171 -0.063639402 2.68138
1.3415101 -0.063799597 2.6881199
1.3123 -0.050771799 2.6811199
1.3241867 -0.052960601 2.6835001
1.33333 -0.057277299 2.6846199
1.3058701 -0.044341002 2.6811199
1.31554 -0.044450499 2.6877501
1.2961299 -0.034692399 2.6809402
1.30505 -0.034760647 2.6860652
1.2928801 -0.0250462 2.6808801
1.30101 -0.0250789 2.6843801
1.2993799 -0.018616799 2.681
1.30827 0.02322335 2.6860652
1.3074501 0.036088049 2.6843801
1.3058701 0.0456906 2.6811199
1.27668 0.103809 2.6873801
1.2622 0.116555 2.684
1.2702399 0.110255 2.6873801
1.29457 0.110132 2.6843801
1.26373 0.123141 2.6872499
1.60789 0.225722 2.6807499
1.6144 0.225733 2.6808801
1.62491 0.226301 2.6876199
1.585235 0.28677952 2.6805
1.5939533 0.29275599 2.6861668
1.63135 0.2939885 2.6876199
1.68764 0.293688 2.68488
1.20398 0.31604999 2.6833701
1.21042 0.31604999 2.6833701
1.1975501 0.322487 2.6833701
1.2184401 0.322907 2.6868801
1.22335 0.32250199 2.6835001
1.68764 0.32588699 2.68488
1.23634 0.33540601 2.6837499
1.68764 0.33554599 2.68488
1.194 0.34584898 2.6898701
1.67909 0.34798801 2.6815
1.6855201 0.34155601 2.6815
1.46324 -1.20382 2.6926301
1.47015 -1.2036 2.6993699
1.4600101 -1.1941299 2.6926301
1.47015 -1.193885 2.6993699
1.4600101 -1.18444 2.6926301
1.47015 -1.18417 2.6993699
1.46184 -1.17623 2.6960001
1.45531 -1.166465 2.6958752
1.4470299 -1.15532 2.6925001
1.45066 -1.15175 2.69925
1.45066 -1.14527 2.69925
1.44884 -1.13091 2.6958699
1.45066 -1.1388 2.69925
1.45713 -1.12585 2.69925
1.36915 -0.922575 2.69175
1.37561 -0.922575 2.69175
1.41631 -0.92386001 2.6954999
1.3757467 -0.91549301 2.69625
1.3820601 -0.91611898 2.69175
1.4054734 -0.91519499 2.6953766
1.3853899 -0.90827936 2.6940401
1.3952132 -0.90691036 2.6963768
1.38559 -0.89580345 2.6986301
1.39206 -0.89903998 2.6986301
1.40802 -0.47067699 2.6919999
1.41461 -0.47072101 2.69225
1.44877 -0.471333 2.69575
1.45531 -0.47135401 2.6958699
1.46324 -0.47078601 2.6926301
1.47293 -0.47078601 2.6926301
1.4056699 -0.46451098 2.6936851
1.41631 -0.46482399 2.6954999
1.42515 -0.46454349 2.6938748
1.44231 -0.464867 2.69575
1.453895 -0.46546999 2.69925
1.46367 -0.46549201 2.6993699
1.47015 -0.46549201 2.6993699
1.49431 -0.46495301 2.69625
1.3886499 -0.45130599 2.6919999
1.395975 -0.45481747 2.6936851
1.40332 -0.45833701 2.69537
1.41485 -0.45893201 2.6988699
1.4251499 -0.45485124 2.6938751
1.43398 -0.454577 2.69225
1.44411 -0.45573801 2.6991301
1.45066 -0.458996 2.69925
1.41809 -0.44598499 2.6988699
1.42106 -0.44489101 2.69225
1.4242899 -0.43520451 2.69225
1.4349101 -0.43548501 2.694
1.4243799 -0.4237093 2.6944568
1.436705 -0.42309099 2.6973748
1.3903199 -0.4162955 2.69525
1.4293801 -0.41960499 2.69575
1.4311 -0.413638 2.6989999
1.38858 -0.40608901 2.69187
1.38858 -0.39963201 2.69187
1.39854 -0.38768899 2.6986301
1.40501 -0.38121599 2.6986301
1.42759 -0.37387499 2.6923699
1.43404 -0.364189 2.6923699
1.43757 -0.35537401 2.6989999
1.39679 -0.30316299 2.69525
1.64845 -0.303078 2.6945
1.65492 -0.303078 2.6945
1.6613801 -0.303078 2.6945
1.67009 -0.30348599 2.6981201
1.38379 -0.29021999 2.6951301
1.3903199 -0.296698 2.69525
1.64845 -0.29661599 2.6945
1.6541433 -0.29254934 2.6967533
1.66242 -0.29356599 2.6961899
1.673285 -0.29377225 2.69806
1.37561 -0.2834 2.69175
1.65707 -0.284058 2.698
1.66354 -0.284058 2.698
1.37561 -0.27694401 2.69175
1.3820601 -0.27048799 2.69175
1.69613 -0.21290401 2.69837
1.7026 -0.21290401 2.69837
1.70907 -0.206431 2.69837
1.71562 -0.196732 2.6984999
1.37252 -0.128765 2.69837
1.36605 -0.11582 2.69837
1.35611 -0.083246797 2.6914999
1.34965 -0.070335403 2.6914999
1.35866 -0.073699601 2.6965652
1.3513499 -0.0639598 2.69488
1.33662 -0.050963499 2.6912501
1.3439801 -0.054225549 2.6930652
1.352195 -0.05429605 2.6965652
1.32371 -0.044508401 2.6912501
1.33426 -0.044537351 2.6930001
1.34657 -0.044624198 2.6982501
1.3156099 -0.034867849 2.6945
1.31238 -0.0251734 2.6945
1.3115599 -0.0154714 2.6928101
1.31074 -0.0057774801 2.6911199
1.31238 0.0039096363 2.6945
1.31238 0.013604 2.6945
1.2848001 0.103945 2.6908801
1.29125 0.103945 2.6908801
1.2766 0.113758 2.694
1.29293 0.110542 2.69438
1.26691 0.129912 2.694
1.26691 0.136374 2.694
1.26538 0.142663 2.6907499
1.612715 0.2203915 2.69419
1.6247051 0.22026399 2.6926301
1.63538 0.226859 2.6942501
1.6375 0.28538999 2.6977501
1.69401 0.31742001 2.6949999
1.20373 0.326509 2.6900001
1.21341 0.32328299 2.6900001
1.20675 0.3337965 2.6967499
1.2165101 0.330578 2.6968801
1.23448 0.33019501 2.6937499
1.81986 1.2050101 2.6995001
1.4785399 -1.21164 2.7028699
1.48694 -1.2197 2.7063701
1.47382 -1.18064 2.70613
1.4655 -1.17269 2.70275
1.47566 -1.17562 2.7095001
1.46916 -1.16587 2.7095001
1.45895 -1.15967 2.70263
1.464965 -1.155375 2.7077501
1.46077 -1.144895 2.7060001
1.45895 -1.1337399 2.70263
1.42634 -0.93265498 2.70225
1.4234101 -0.92198998 2.7090001
1.4169101 -0.915492 2.7090001
1.38078 -0.90336347 2.70187
1.40378 -0.90241301 2.70875
1.41041 -0.90899402 2.7090001
1.37595 -0.89471698 2.7051301
1.38072 -0.893601 2.70175
1.39555 -0.89480001 2.7053699
1.3743801 -0.88644671 2.70629
1.384455 -0.88419652 2.7027149
1.39555 -0.88831103 2.7053699
1.46733 -0.46016499 2.70613
1.4785399 -0.466095 2.7028699
1.4888 -0.46728101 2.7097499
1.4953001 -0.46728101 2.7097499
1.40683 -0.453004 2.7021301
1.41655 -0.453004 2.7021301
1.45895 -0.45956999 2.70263
1.38726 -0.44000101 2.70187
1.39642 -0.44409001 2.7070599
1.405345 -0.44707999 2.7054999
1.4146675 -0.44208425 2.7047174
1.38726 -0.43351999 2.70187
1.41835 -0.43411151 2.70556
1.39729 -0.42812601 2.70875
1.418385 -0.42763197 2.7056251
1.42163 -0.42114201 2.7056301
1.42641 -0.41415501 2.7023699
1.43937 -0.34933701 2.7023699
1.4215699 -0.330273 2.7054999
1.41508 -0.32378399 2.7054999
1.40859 -0.31080499 2.7054999
1.65465 -0.31070501 2.7046199
1.665455 -0.31090599 2.7063749
1.67628 -0.31110701 2.7081299
1.68285 -0.31112099 2.70825
1.64816 -0.30421701 2.7046199
1.67865 -0.303866 2.7014999
1.68732 -0.30425999 2.7049999
1.646065 -0.2941125 2.701185
1.68724 -0.294514 2.70487
1.6514001 -0.2847555 2.7046251
1.67426 -0.28478199 2.70487
1.68075 -0.28478199 2.70487
1.65671 -0.27861601 2.7079999
1.6664951 -0.27862251 2.708065
1.67628 -0.278629 2.7081299
1.71557 -0.181228 2.7086301
1.72206 -0.18772499 2.7086301
1.37595 -0.122599 2.7051301
1.36946 -0.1063775 2.7051301
1.3677599 -0.093284354 2.70175
1.37117 -0.0837726 2.7084999
1.36121 -0.064120002 2.7016301
1.3620601 -0.054431953 2.703315
1.35473 -0.044679999 2.7016301
1.3254499 -0.034956798 2.70138
1.33517 -0.0381965 2.70138
1.34498 -0.038199097 2.701565
1.64808 0.26664299 2.7045
1.21301 0.337874 2.7035
1.222795 0.3346515 2.703625
1.2342501 0.33423752 2.700315
1.20653 0.34435901 2.7035
1.81557 1.20646 2.70275
1.83327 1.20959 2.7097499
1.80908 1.21294 2.70275
1.80485 1.22095 2.70613
1.4840699 -1.2064149 2.7130001
1.4840699 -1.193405 2.7130001
1.48592 -1.18511 2.7163799
1.4775 -1.17057 2.7128699
1.4868751 -1.176095 2.7181301
1.4775 -1.16407 2.7128699
1.48783 -1.16381 2.7198801
1.4759632 -1.1537167 2.7140398
1.4751949 -1.145285 2.7146249
1.48124 -1.14092 2.7197499
1.4709899 -1.1347849 2.7128699
1.4709899 -1.12502 2.7128699
1.3729399 -0.923011 2.7119999
1.4222 -0.91239202 2.71913
1.4156801 -0.90587002 2.71913
1.364785 -0.89153302 2.7151849
1.4073499 -0.89819002 2.7156301
1.364785 -0.88502049 2.7151849
1.37288 -0.88394099 2.71187
1.3665199 -0.87962002 2.7186301
1.3763 -0.87962002 2.7186301
1.384425 -0.87856901 2.7153699
1.4775 -0.46131301 2.7128699
1.45972 -0.455351 2.71613
1.40728 -0.44221899 2.7155001
1.45321 -0.44557852 2.71613
1.404935 -0.435987 2.7172501
1.41386 -0.43572599 2.7156301
1.45321 -0.43580601 2.71613
1.4082251 -0.4262225 2.7173152
1.41562 -0.426485 2.7190001
1.4205 -0.42273799 2.7158699
1.4082251 -0.41318297 2.7173152
1.4156801 -0.416722 2.71913
1.42695 -0.41620499 2.71575
1.4448299 -0.41572601 2.71263
1.4091001 -0.40365899 2.7190001
1.435925 -0.40946448 2.7142501
1.44663 -0.40972799 2.7160001
1.4073499 -0.39664501 2.7156301
1.4156801 -0.390634 2.71913
1.4254949 -0.384121 2.7191901
1.65631 -0.31224099 2.7179999
1.69153 -0.31152299 2.71175
1.64979 -0.305722 2.7179999
1.69803 -0.30501899 2.71175
1.6448833 -0.294366 2.7135
1.69803 -0.29526201 2.71175
1.64782 -0.285822 2.7147501
1.69145 -0.28549299 2.7116301
1.70015 -0.28586099 2.7151301
1.65433 -0.27930999 2.7147501
1.68495 -0.27898899 2.7116301
1.69363 -0.279349 2.7151301
1.70886 -0.22102199 2.7186301
1.70015 -0.21422499 2.7151301
1.69258 -0.20433149 2.7134399
1.69153 -0.194446 2.71175
1.69478 -0.18468949 2.71175
1.38288 -0.116695 2.71875
1.37459 -0.077468701 2.71525
1.36808 -0.044905301 2.71525
1.3336101 -0.031834502 2.71137
1.345155 -0.031877 2.7149999
1.35499 -0.031878501 2.7151301
1.3615 -0.038390901 2.7151301
1.3271 -0.0253311 2.71137
1.33539 -0.025365001 2.7149999
1.3271 -0.015575999 2.71137
1.3271 -0.00582095 2.71137
1.32882 0.0039392007 2.71487
1.82575 1.20456 2.7130599
1.83555 1.20459 2.71312
1.49814 -1.22234 2.7267499
1.49628 -1.1947 2.7233801
1.49628 -1.1849051 2.7233801
1.49628 -1.1751 2.7233801
1.49721 -1.166025 2.725065
1.4896801 -1.15545 2.7232499
1.4915299 -1.15035 2.72662
1.4324 -0.92127901 2.72613
1.3797801 -0.901456 2.7255001
1.38632 -0.90799397 2.7255001
1.4174401 -0.900464 2.7225001
1.4258 -0.90815997 2.7260001
1.41091 -0.89393401 2.7225001
1.3583601 -0.8872 2.7218699
1.39952 -0.88192499 2.72575
1.40438 -0.88740402 2.7225001
1.32894 -0.810826 2.7284999
1.33549 -0.81737101 2.7284999
1.32234 -0.804245 2.72837
1.45869 -0.43091199 2.7263801
1.4605 -0.424898 2.7297499
1.41926 -0.411237 2.7260001
1.42404 -0.41725799 2.72263
1.43234 -0.411237 2.7260001
1.4605 -0.41835001 2.7297499
1.43716 -0.40421599 2.7227499
1.4436899 -0.40421599 2.7227499
1.45209 -0.40473601 2.7262499
1.43805 -0.39466649 2.7244401
1.44548 -0.39490902 2.72613
1.45395 -0.39543399 2.7297499
1.43716 -0.384624 2.7227499
1.4436899 -0.384624 2.7227499
1.45395 -0.38561299 2.7297499
1.45022 -0.378093 2.7227499
1.4605 -0.372518 2.7297499
1.4605 -0.36596999 2.7297499
1.6758699 -0.32000601 2.7286301
1.68896 -0.32000601 2.7286301
1.68234 -0.31999201 2.7284999
1.64412 -0.29668051 2.7248101
1.7131799 -0.29349101 2.7255001
1.64531 -0.28651899 2.72137
1.65192 -0.28000501 2.7214999
1.70656 -0.28040299 2.7253699
1.7131799 -0.28695399 2.7255001
1.6638401 -0.27382901 2.7249999
1.67158 -0.27349001 2.7216301
1.71767 -0.22131699 2.72225
1.72412 -0.21477699 2.7221301
1.69131 -0.201701 2.7218699
1.73072 -0.208258 2.72225
1.68896 -0.195656 2.7286301
1.69131 -0.195172 2.7218699
1.68896 -0.18911099 2.7286301
1.69494 -0.18444699 2.72421
1.38466 -0.110316 2.72225
1.38816 -0.104048 2.72913
1.3797801 -0.0712239 2.7255001
1.3797801 -0.064686596 2.7255001
1.37807 -0.0548128 2.7221301
1.37807 -0.045019001 2.7221301
1.36664 -0.031998899 2.7253699
1.37154 -0.038489901 2.7221301
1.34691 -0.025459601 2.7251301
1.35524 -0.0254934 2.72875
1.3437201 -0.016758099 2.7275035
1.34209 -0.0058579901 2.7286301
1.34209 0.00068677199 2.7286301
1.6743 0.28455999 2.7207501
1.66451 0.29434901 2.7207501
1.6710401 0.29434901 2.7207501
1.50854 -1.22548 2.7337501
1.50191 -1.21559 2.7336199
1.50006 -1.20427 2.7302499
1.5104001 -1.19417 2.7371199
1.50854 -1.1861399 2.7337501
1.50854 -1.17958 2.7337501
1.50191 -1.15986 2.7336199
1.49536 -1.14674 2.7336199
1.48683 -1.13867 2.73
1.39344 -0.92579901 2.7395
1.39344 -0.91922802 2.7395
1.36522 -0.89824402 2.73563
1.41629 -0.89078599 2.7328801
1.42284 -0.89734101 2.7328801
1.36522 -0.88511997 2.73563
1.33059 -0.86425 2.7318699
1.31911 -0.85875702 2.73525
1.3257 -0.85549605 2.7353101
1.3322901 -0.85551548 2.7353699
1.32573 -0.84567398 2.7353699
1.3322901 -0.84567398 2.7353699
1.32573 -0.839113 2.7353699
1.3331101 -0.83634603 2.7370601
1.34056 -0.83361697 2.7388699
1.335595 -0.82600999 2.735435
1.34375 -0.82497197 2.7320001
1.3545151 -0.82553852 2.73388
1.31911 -0.80627102 2.73525
1.469 -0.45168701 2.7333801
1.4755501 -0.45824301 2.7333801
1.469 -0.44512999 2.7333801
1.4708101 -0.43583351 2.7367499
1.4708101 -0.42598701 2.7367499
1.4294 -0.412274 2.7328801
1.46237 -0.41233101 2.7332499
1.42612 -0.40571901 2.7328801
1.43602 -0.405738 2.733
1.46424 -0.40629399 2.7367499
1.4272333 -0.39698496 2.7329204
1.4359851 -0.39589548 2.7329402
1.69986 -0.32082701 2.73563
1.6581399 -0.31382099 2.73175
1.6456 -0.30341032 2.7363367
1.65158 -0.30726799 2.73175
1.7197 -0.30116999 2.7358699
1.64253 -0.294891 2.7385001
1.64503 -0.28761199 2.73175
1.65158 -0.281059 2.73175
1.66239 -0.27521101 2.73875
1.6845 -0.27453199 2.7320001
1.6944051 -0.27454501 2.7321301
1.7065001 -0.27490899 2.73575
1.71306 -0.222414 2.73575
1.7064199 -0.21584301 2.73563
1.6965799 -0.206 2.73563
1.7163401 -0.17648099 2.73575
1.3898799 -0.097623102 2.7325001
1.39344 -0.091302298 2.7395
1.39344 -0.0847314 2.7395
1.39255 -0.05512955 2.7377501
1.40001 -0.051877201 2.7395
1.39166 -0.045248501 2.7360001
1.38263 -0.035423949 2.7376251
1.3635401 -0.025526101 2.73225
1.3736 -0.0255915 2.7392499
1.35376 -0.0124499 2.7390001
1.36033 -0.019019499 2.7390001
1.5161999 -1.20534 2.7476299
1.5123301 -1.17597 2.7406199
1.50761 -1.15768 2.744
1.36561 -0.90284002 2.74962
1.38193 -0.90716201 2.7427499
1.43489 -0.907368 2.7433801
1.36213 -0.89396399 2.74262
1.36387 -0.88851798 2.74612
1.373755 -0.88193101 2.74612
1.3837 -0.881971 2.7462499
1.3945301 -0.88257301 2.7481301
1.41682 -0.88867998 2.7466199
1.31753 -0.862014 2.74563
1.34399 -0.84233397 2.7458701
1.32912 -0.834683 2.7423699
1.35058 -0.83574802 2.7458701
1.3357 -0.821527 2.7423699
1.33076 -0.815952 2.74575
1.4844401 -0.4566915 2.7437501
1.48115 -0.44681999 2.7437501
1.67981 -0.32201499 2.74575
1.6487499 -0.30919501 2.7488699
1.64463 -0.28869101 2.7420001
1.65121 -0.282114 2.7420001
1.72834 -0.28289801 2.74962
1.72175 -0.27630299 2.74962
1.6909699 -0.193362 2.7425001
1.6975501 -0.183495 2.7425001
1.71297 -0.17715099 2.74612
1.73068 -0.17694101 2.7428801
1.39693 -0.075063102 2.7463801
1.39693 -0.065182097 2.7463801
1.40358 -0.058597401 2.7465
1.4017299 -0.045362201 2.7428801
1.39275 -0.035514351 2.7446301
1.38546 -0.0256896 2.7497499
1.365425 -0.0157557 2.742625
1.35549 -0.0058877701 2.7425001
1.8277 1.22983 2.74038
1.83427 1.22326 2.74038
1.82337 1.2379301 2.7437501
1.81678 1.2445101 2.7437501
1.8102 1.25109 2.7437501
1.52667 -1.23484 2.7546301
1.53529 -1.23646 2.75825
1.5200599 -1.22823 2.7546301
1.5200599 -1.2150199 2.7546301
1.52667 -1.2018 2.7546301
1.52667 -1.1952 2.7546301
1.5133801 -1.1555001 2.7544999
1.50486 -1.1474299 2.7509999
1.44032 -0.90419501 2.7537501
1.3607149 -0.89406401 2.7530599
1.43371 -0.89758998 2.7537501
1.36735 -0.884179 2.7531199
1.34913 -0.87530601 2.7563801
1.35084 -0.86648798 2.7598801
1.32918 -0.85539448 2.75612
1.34742 -0.85108399 2.7528801
1.35084 -0.85986799 2.7598801
1.33092 -0.84658998 2.7597499
1.33585 -0.832295 2.7562499
1.333385 -0.82289851 2.7579999
1.48493 -0.44136199 2.7507501
1.49349 -0.441944 2.75437
1.48493 -0.434764 2.7507501
1.49349 -0.43533701 2.75437
1.4852467 -0.42448568 2.7554169
1.4821 -0.41602701 2.75775
1.47167 -0.401757 2.7506199
1.47541 -0.39616501 2.7576301
1.4735401 -0.38575751 2.7541251
1.4821 -0.382954 2.75775
1.47833 -0.375384 2.7507501
1.47833 -0.36878601 2.7507501
1.66844 -0.31702301 2.75962
1.64425 -0.30298701 2.7523701
1.64425 -0.29638499 2.7523701
1.66844 -0.27730799 2.75962
1.73396 -0.23044601 2.753315
1.70622 -0.210878 2.7565
1.69961 -0.204266 2.7565
1.63427 -0.190749 2.75225
1.64641 -0.191008 2.756
1.68845 -0.191277 2.7598801
1.69288 -0.19433999 2.756315
1.63427 -0.184147 2.75225
1.64641 -0.184398 2.756
1.6961801 -0.18441901 2.756315
1.7039549 -0.177929 2.7581902
1.7128299 -0.17782 2.7565
1.40716 -0.0950711 2.7535
1.40716 -0.085164502 2.7535
1.40895 -0.065434299 2.757
1.41197 -0.052076101 2.75
1.41197 -0.045480002 2.75
1.40293 -0.035605799 2.7516899
1.84598 1.22445 2.75787
1.53248 -1.23291 2.76513
1.5412 -1.23458 2.7688701
1.5239201 -1.22473 2.7616301
1.53449 -1.22457 2.76875
1.53061 -1.21154 2.76175
1.53061 -1.19166 2.76175
1.53449 -1.18804 2.76875
1.5239201 -1.17836 2.7616301
1.92423 -1.0938801 2.7657499
1.93086 -1.08725 2.7657499
1.40104 -0.92198598 2.7674999
1.41074 -0.88654798 2.7605
1.37751 -0.87984699 2.7602501
1.38413 -0.87984699 2.7602501
1.3907501 -0.87984699 2.7602501
1.33261 -0.84103602 2.7632501
1.35752 -0.84666699 2.76
1.36414 -0.840047 2.76
1.3792599 -0.83455902 2.7637501
1.3259799 -0.82115299 2.7632501
1.5039099 -0.462937 2.7613699
1.49729 -0.45631301 2.7613699
1.49729 -0.44969001 2.7613699
1.49919 -0.430365 2.7648699
1.49256 -0.41710201 2.7648699
1.48492 -0.406876 2.763
1.48586 -0.39387298 2.76475
1.66603 -0.31782699 2.7666199
1.74385 -0.284352 2.7637501
1.71611 -0.27142501 2.7671199
1.73722 -0.27772301 2.7637501
1.73278 -0.231613 2.7672501
1.72396 -0.224691 2.7637501
1.71726 -0.218052 2.7636199
1.6346999 -0.198605 2.7697501
1.64474 -0.198614 2.7698801
1.6571366 -0.196163 2.7665398
1.69265 -0.18511701 2.7667501
1.63719 -0.178223 2.7627499
1.64806 -0.178683 2.7698801
1.69937 -0.178489 2.76688
1.42772 -0.138714 2.76775
1.41742 -0.12511399 2.7606201
1.41074 -0.111866 2.7605
1.41074 -0.105245 2.7605
1.41074 -0.075449154 2.7605
1.41922 -0.058973499 2.7641301
1.4141099 -0.035723448 2.7606201
1.39921 -0.0258216 2.76388
1.40768 -0.0258554 2.7674999
1.3792599 -0.0125624 2.7637501
1.38588 -0.019191399 2.7637501
1.37256 -0.0059331302 2.7636199
1.35752 0.0073146801 2.76
1.36594 0.00069558102 2.7636199
1.3592499 0.0139524 2.7635
1.3592499 0.023894999 2.7635
1.3592499 0.033837602 2.7635
1.85309 1.22253 2.7685001
1.84637 1.23576 2.7683699
1.5451699 -1.20447 2.776
1.5451699 -1.1978101 2.776
1.53844 -1.18444 2.7758801
1.52978 -1.17625 2.7722499
1.53372 -1.1726 2.7793801
1.54045 -1.17932 2.7795
1.5250601 -1.15776 2.7757499
1.93828 -1.07145 2.7763801
1.47825 -0.95123702 2.7753699
1.47153 -0.94453698 2.77525
1.45815 -0.92452598 2.77513
1.38946 -0.91646397 2.77087
1.36625 -0.90541297 2.77775
1.3595901 -0.895419 2.77775
1.36625 -0.89875001 2.77775
1.37292 -0.892088 2.77775
1.42468 -0.89112401 2.77475
1.43993 -0.89899302 2.7785001
1.3779 -0.88434899 2.77437
1.40458 -0.88438898 2.7744999
1.4112999 -0.88442898 2.7746301
1.36625 -0.8721 2.77775
1.3863 -0.878802 2.7778699
1.36447 -0.864308 2.7741301
1.37292 -0.86543697 2.77775
1.3627501 -0.85657197 2.7706299
1.37292 -0.85877502 2.77775
1.3694 -0.84992599 2.7706299
1.37604 -0.84328097 2.7706299
1.3261 -0.832012 2.77737
1.3344049 -0.83428597 2.773875
1.39303 -0.838862 2.7780001
1.33605 -0.82991499 2.77038
1.50977 -0.45809001 2.77213
1.51167 -0.45201099 2.77562
1.51167 -0.445353 2.77562
1.5136499 -0.43926901 2.7792499
1.50495 -0.42536199 2.7755001
1.4982899 -0.412047 2.7755001
1.50688 -0.41590852 2.7790599
1.50018 -0.40590101 2.779
1.50025 -0.39925399 2.77912
1.49633 -0.37494248 2.7718699
1.48491 -0.352117 2.7753699
1.49157 -0.35877401 2.7753699
1.7439801 -0.31873199 2.7744999
1.75063 -0.31207699 2.7744999
1.75958 -0.305821 2.7781301
1.65687 -0.292007 2.7735
1.75729 -0.29544002 2.7744999
1.6615 -0.28500801 2.7701199
1.75958 -0.285831 2.7781301
1.6681401 -0.27836299 2.7701199
1.67909 -0.27241799 2.7772501
1.68371 -0.27208701 2.77387
1.693725 -0.272093 2.7739348
1.70374 -0.27209899 2.7739999
1.7104 -0.27209899 2.7739999
1.73277 -0.272479 2.7778699
1.75292 -0.279167 2.7781301
1.75729 -0.232219 2.7744999
1.76394 -0.225565 2.7744999
1.67243 -0.195812 2.7772501
1.66142 -0.185335 2.77
1.69257 -0.185837 2.7774999
1.65687 -0.17891701 2.7735
1.69923 -0.179175 2.7774999
1.4332 -0.13258199 2.7783699
1.42647 -0.095925644 2.77825
1.42647 -0.085929997 2.77825
1.425575 -0.075888544 2.7765
1.42468 -0.065855503 2.77475
1.4313999 -0.052547101 2.7748699
1.42953 -0.045831501 2.77125
1.426175 -0.035860248 2.7711902
1.41617 -0.0258893 2.7711301
1.39454 -0.01593795 2.77437
1.40642 -0.0192912 2.7781301
1.38456 -0.0059562102 2.77437
1.37625 0.0040304284 2.77775
1.3694 0.033924799 2.7706299
1.3694 0.0405703 2.7706299
1.37964 0.047339398 2.7778699
1.37784 0.053931799 2.77425
1.84197 1.24391 2.77175
1.8264201 1.2579451 2.77338
1.83533 1.25056 2.77175
1.80655 1.2669899 2.77863
1.8159775 1.2632599 2.777755
1.82195 1.2638 2.77163
1.80428 1.27205 2.77513
1.81093 1.27205 2.77513
1.54914 -1.23426 2.7831199
1.54914 -1.22425 2.7831199
1.54914 -1.21424 2.7831199
1.54914 -1.1942101 2.7831199
1.54914 -1.18753 2.7831199
1.55115 -1.1824 2.7867501
1.5444 -1.17566 2.7866199
1.53572 -1.16746 2.783
1.53096 -1.15556 2.7865
1.926475 -1.10419 2.78338
1.9391 -1.09565 2.7871301
1.94578 -1.0856249 2.7871301
1.9433399 -1.06757 2.7836201
1.953355 -1.06089 2.7836201
1.47048 -0.934789 2.7858801
1.40152 -0.92669201 2.78163
1.4656399 -0.92258298 2.7893801
1.36976 -0.914415 2.7848699
1.4555349 -0.90581596 2.7892499
1.36798 -0.89321202 2.78125
1.36798 -0.88654101 2.78125
1.37465 -0.88654101 2.78125
1.40511 -0.88224202 2.7887499
1.4253 -0.88901103 2.789
1.36798 -0.87987 2.78125
1.37465 -0.87653446 2.78125
1.3836232 -0.87547469 2.7814133
1.3947901 -0.87994897 2.7815001
1.32783 -0.86645001 2.7809999
1.3345 -0.86645001 2.7809999
1.38231 -0.86381102 2.7832501
1.38318 -0.85433602 2.7850001
1.38986 -0.84765601 2.7850001
1.51555 -0.43314701 2.7827499
1.50881 -0.40643099 2.78262
1.5055101 -0.39642799 2.7826848
1.51274 -0.394106 2.78988
1.50214 -0.386408 2.78262
1.50214 -0.36638501 2.78262
1.664535 -0.31611499 2.78075
1.6612 -0.28610101 2.78075
1.66787 -0.27943099 2.78075
1.67454 -0.27276099 2.78075
1.74617 -0.273534 2.78863
1.7529401 -0.27354601 2.7887499
1.756285 -0.24010099 2.7887499
1.77316 -0.23343299 2.789
1.73271 -0.226703 2.7885001
1.77985 -0.226743 2.789
1.62968 -0.212972 2.78387
1.71487 -0.212771 2.78125
1.72378 -0.21972799 2.7848699
1.63636 -0.206295 2.78387
1.66546 -0.206591 2.7878699
1.67214 -0.206591 2.7878699
1.70812 -0.206091 2.7811301
1.6842667 -0.19504499 2.7821233
1.6932133 -0.19727433 2.7822101
1.70137 -0.199412 2.7809999
1.67454 -0.18605401 2.78075
1.684695 -0.18607099 2.7809999
1.64311 -0.172916 2.7839999
1.65201 -0.173149 2.78775
1.67214 -0.17984401 2.7878699
1.6947 -0.1794 2.7809999
1.715915 -0.173188 2.7883699
1.726035 -0.17286199 2.7831199
1.73496 -0.17275301 2.7813699
1.44842 -0.146101 2.7820001
1.442685 -0.136178 2.7838101
1.43688 -0.126241 2.7855
1.42834 -0.119404 2.7818699
1.4302 -0.112879 2.7855
1.4302 -0.106198 2.7855
1.43875 -0.072886601 2.78912
1.43688 -0.0661107 2.7855
1.43507 -0.059354801 2.7820001
1.43507 -0.032663699 2.7820001
1.4284 -0.0259909 2.7820001
1.4014601 -0.0126431 2.7815001
1.41677 -0.019341599 2.7853799
1.42524 -0.019365899 2.7888801
1.39485 -0.0059717698 2.78163
1.38658 0.0040411316 2.78513
1.37644 0.0140603 2.7848699
1.3755751 0.0240626 2.7831199
1.38498 0.034145199 2.78863
1.38318 0.040780801 2.7850001
1.75963 0.27495 2.7887499
1.7529401 0.28163901 2.7887499
1.85821 1.237 2.7861199
1.7965701 1.245985 2.7838101
1.85153 1.24368 2.7861199
1.7954 1.25518 2.7820001
1.8051367 1.2535399 2.7832868
1.81453 1.253535 2.7857499
1.82692 1.25851 2.7893801
1.83816 1.25704 2.7861199
1.84484 1.25036 2.7861199
1.7954 1.26186 2.7820001
1.805455 1.2618849 2.7820601
1.56189 -1.22568 2.7939999
1.56189 -1.2156301 2.7939999
1.55986 -1.20401 2.79037
1.55986 -1.193975 2.79037
1.56189 -1.18547 2.7939999
1.55519 -1.1787699 2.7939999
1.90789 -1.13039 2.79037
1.91459 -1.13039 2.79037
1.92128 -1.1237 2.79037
1.8857599 -1.11305 2.79725
1.89247 -1.11305 2.79725
1.9465801 -1.08645 2.7978699
1.94649 -1.076345 2.79775
1.95076 -1.06494 2.79425
1.5031199 -0.96531397 2.79688
1.4897 -0.95189703 2.79688
1.49641 -0.958606 2.79688
1.48101 -0.94392198 2.7931199
1.47622 -0.93172997 2.7967501
1.3934799 -0.92353398 2.7922499
1.38002 -0.91679502 2.79212
1.46945 -0.91827297 2.7966199
1.4406199 -0.896905 2.7927499
1.41737 -0.88572198 2.7997501
1.39529 -0.87108397 2.7958801
1.4019901 -0.87778997 2.7958801
1.39529 -0.86437798 2.7958801
1.39529 -0.85767198 2.7958801
1.4019901 -0.85096598 2.7958801
1.33966 -0.843014 2.79175
1.40694 -0.84320301 2.7923801
1.52818 -0.46164301 2.7936299
1.52818 -0.45494199 2.7936299
1.52818 -0.448241 2.7936299
1.53016 -0.442114 2.79725
1.53016 -0.435404 2.79725
1.522395 -0.42504349 2.795315
1.5147099 -0.38456798 2.7934999
1.51667 -0.37500301 2.7971301
1.5099 -0.36156899 2.7969999
1.50124 -0.35440001 2.79338
1.48777 -0.340985 2.7932501
1.49447 -0.34768501 2.7932501
1.73722 -0.334584 2.7957499
1.74392 -0.334584 2.7957499
1.75749 -0.32790801 2.796
1.7642 -0.32120201 2.796
1.77091 -0.314495 2.796
1.66085 -0.30058399 2.7913699
1.66085 -0.29388899 2.7913699
1.78 -0.29477099 2.7997501
1.47616 -0.287734 2.7966199
1.6659633 -0.28321898 2.7962067
1.77328 -0.28134 2.7997501
1.78 -0.28805599 2.7997501
1.66517 -0.274515 2.79862
1.67415 -0.27433699 2.7968102
1.6752751 -0.26780802 2.7986851
1.68768 -0.26764649 2.7969999
1.6945601 -0.26714399 2.79175
1.70125 -0.26714399 2.79175
1.73379 -0.267515 2.79562
1.74392 -0.26752701 2.7957499
1.61572 -0.240585 2.7943699
1.7529 -0.241016 2.7993801
1.77091 -0.240725 2.796
1.62257 -0.233904 2.7946301
1.74166 -0.233695 2.79212
1.634815 -0.22415 2.7983699
1.72373 -0.220577 2.79562
1.6448801 -0.214082 2.7983699
1.655025 -0.214091 2.7985001
1.66517 -0.214101 2.79862
1.67531 -0.21411 2.7987499
1.7169501 -0.213862 2.7955
1.64739 -0.20684101 2.79125
1.65416 -0.20685101 2.7913699
1.66078 -0.20684101 2.79125
1.685535 -0.2070035 2.7934399
1.6967601 -0.207147 2.7953801
1.705745 -0.20701751 2.7936251
1.69888 -0.180553 2.7988801
1.6652801 -0.17348701 2.793185
1.71024 -0.173631 2.7955
1.64062 -0.166664 2.7911301
1.46078 -0.146672 2.7928801
1.4549899 -0.13670701 2.7946301
1.4473799 -0.12657499 2.7928801
1.4406199 -0.119871 2.7927499
1.44249 -0.096551448 2.79638
1.4492 -0.046247002 2.79638
1.4492 -0.039539699 2.79638
1.44249 -0.0261252 2.79638
1.41363 -0.0126925 2.7923801
1.42224 -0.0127096 2.7961199
1.43332 -0.016072299 2.79813
1.4069999 -0.0059951199 2.7925
1.4173 -0.0060104099 2.7996199
1.3971 0.0074193701 2.7995
1.40381 0.00070461101 2.7995
1.41065 0.00070467399 2.7997501
1.3903199 0.0141335 2.7993801
1.3903199 0.02420515 2.7993801
1.43758 0.024209499 2.79988
1.4447266 0.025297133 2.79638
1.3971 0.0342784 2.7995
1.43758 0.034283001 2.79988
1.44429 0.034283001 2.79988
1.3971 0.040993098 2.7995
1.7663651 0.26877749 2.7941301
1.75741 0.27565199 2.7958801
1.75071 0.28906399 2.7958801
1.86974 1.22681 2.79338
1.86304 1.23352 2.79338
1.85875 1.24182 2.7969999
1.82496 1.25507 2.7966199
1.8361599 1.26026 2.7932501
1.57673 -1.21183 2.8085001
1.57673 -1.2051001 2.8085001
1.57673 -1.19836 2.8085001
1.55445 -1.17658 2.80475
1.54772 -1.16985 2.80475
1.90418 -1.12271 2.80463
1.91091 -1.1294399 2.80463
1.89309 -1.11064 2.80813
1.90537 -1.1133101 2.80638
1.9287699 -1.11464 2.80125
1.895 -1.10782 2.8010001
1.9273601 -1.1039166 2.8024566
1.9367399 -1.105275 2.8030601
1.94238 -1.1013 2.8015001
1.9257801 -1.09324 2.806685
1.93467 -1.0959251 2.804935
1.9450468 -1.0928601 2.8085797
1.95153 -1.09595 2.8050001
1.9335632 -1.08472 2.8049567
1.94221 -1.08105 2.80125
1.9433733 -1.07397 2.8061666
1.95406 -1.07042 2.80862
1.48677 -0.940871 2.8039999
1.47814 -0.92622101 2.80037
1.48005 -0.92069501 2.8039999
1.47326 -0.91392797 2.80387
1.45295 -0.90039802 2.8036301
1.46653 -0.90720302 2.80387
1.43944 -0.89363301 2.8034999
1.41242 -0.88010597 2.8032501
1.42593 -0.88686901 2.80338
1.40569 -0.87338197 2.8032501
1.4244051 -0.847619 2.8069999
1.48684 -0.84002501 2.8041301
1.5023 -0.83441401 2.8078699
1.54607 -0.46589932 2.8058331
1.55237 -0.46957999 2.8010001
1.57945 -0.46292299 2.8013699
1.54291 -0.45395601 2.80825
1.54291 -0.44385201 2.80825
1.53512 -0.426716 2.8063149
1.52536 -0.41579601 2.80075
1.527365 -0.40624899 2.80444
1.52257 -0.369726 2.8080001
1.5056651 -0.34613752 2.8078699
1.75752 -0.33590099 2.8067501
1.47135 -0.32168999 2.8002501
1.70556 -0.32953501 2.80988
1.47135 -0.314973 2.8002501
1.46457 -0.30152699 2.8001201
1.47516 -0.30568799 2.8074999
1.66948 -0.30887601 2.8058801
1.7823 -0.30187699 2.80338
1.4731899 -0.295192 2.80375
1.48677 -0.28849301 2.8039999
1.78461 -0.282069 2.8069999
1.66268 -0.275213 2.8057499
1.76877 -0.274968 2.8032501
1.7778701 -0.275336 2.8069999
1.65809 -0.2654615 2.8093801
1.6639251 -0.26478225 2.8021851
1.67621 -0.26176599 2.8058801
1.69874 -0.26212701 2.8097501
1.70336 -0.261801 2.8062501
1.7123849 -0.264999 2.8045001
1.7247601 -0.268197 2.8027501
1.75752 -0.26857901 2.8067501
1.65809 -0.25535399 2.8093801
1.66275 -0.255036 2.8058801
1.67156 -0.25535399 2.8093801
1.74845 -0.241328 2.803
1.74165 -0.234594 2.80288
1.64914 -0.221366 2.80562
1.65595 -0.221375 2.8057499
1.66608 -0.22138 2.805815
1.67838 -0.221671 2.8095
1.68519 -0.221681 2.8096199
1.73492 -0.227871 2.80288
1.68975 -0.214665 2.806
1.69655 -0.214674 2.8061199
1.7056201 -0.214545 2.804435
1.7146 -0.214407 2.8026199
1.68756 -0.180779 2.8023801
1.69428 -0.180779 2.8023801
1.68519 -0.17450801 2.8096199
1.65381 -0.167321 2.80212
1.665005 -0.16743299 2.8039999
1.46457 -0.14033701 2.8001201
1.4723051 -0.143792 2.8020601
1.48005 -0.147256 2.8039999
1.46647 -0.133793 2.80375
1.47516 -0.133972 2.8074999
1.4563451 -0.123703 2.80369
1.46503 -0.1238685 2.807435
1.44436 -0.113467 2.8
1.4549 -0.113765 2.8073699
1.44436 -0.106751 2.8
1.44436 -0.086602703 2.8
1.44436 -0.079886697 2.8
1.452985 -0.05645955 2.8036849
1.45295 -0.0329176 2.8036301
1.4549 -0.026227999 2.8073699
1.43944 -0.0127431 2.8034999
1.4462301 -0.0194683 2.8036301
1.42593 -0.0060184598 2.80338
1.4327101 -0.0060187299 2.8034999
1.40563 0.0074289702 2.8031199
1.4158399 0.0040676128 2.80338
1.4244051 0.0040728692 2.8069999
1.39891 0.0141524 2.8031199
1.40745 0.0141707 2.8067501
1.41424 0.0141714 2.80687
1.444665 0.0141726 2.8071301
1.39891 0.024237599 2.8031199
1.40751 0.02427 2.80687
1.433605 0.024253849 2.8052499
1.4556133 0.023092268 2.8001201
1.46745 0.024257001 2.805625
1.4327101 0.034327399 2.8034999
1.454495 0.034286 2.8001201
1.46843 0.034376301 2.8074999
1.40071 0.047831502 2.8067501
1.4362134 0.043332029 2.8059635
1.44521 0.045577098 2.8060033
1.454865 0.044474348 2.8073101
1.46163 0.044475302 2.8073699
1.4447601 0.054574549 2.8073101
1.4549 0.054575801 2.8073699
1.46163 0.054575801 2.8073699
1.4442475 0.064650625 2.8063149
1.4546299 0.065681331 2.8025367
1.4648533 0.063495368 2.8049533
1.47471 0.067870401 2.8002501
1.78222 0.269656 2.8032501
1.75071 0.31037101 2.8066199
1.8117 1.24638 2.80725
1.8184299 1.2531101 2.80725
1.82525 1.25316 2.8073699
1.58087 -1.22177 2.8158801
1.58087 -1.19476 2.8158801
1.56723 -1.1811399 2.8156199
1.5740499 -1.18795 2.8157499
1.56047 -1.17439 2.8156199
1.54697 -1.16088 2.8156199
1.554755 -1.165035 2.8175001
1.5625499 -1.16919 2.81938
1.93208 -1.13397 2.8158801
1.93625 -1.12571 2.81212
1.88533 -1.11877 2.81163
1.8936599 -1.11494 2.819
1.9251449 -1.113605 2.8156252
1.90135 -1.106755 2.8153749
1.9141099 -1.1082799 2.8192501
1.9214734 -1.1050767 2.8168335
1.92396 -1.09604 2.813875
1.92951 -1.08524 2.81212
1.93634 -1.07855 2.8122499
1.94221 -1.07318 2.8158751
1.94818 -1.06785 2.8196199
1.95495 -1.06785 2.8196199
1.962605 -1.0664999 2.8160601
1.97493 -1.06586 2.8143749
1.98647 -1.06662 2.81638
1.51293 -0.96486098 2.81512
1.49743 -0.95008898 2.8113699
1.50424 -0.95687503 2.8115001
1.5013601 -0.94581997 2.8187499
1.4925749 -0.93440902 2.814935
1.49453 -0.925497 2.81862
1.47904 -0.91076201 2.8148701
1.48579 -0.91751403 2.8148701
1.46547 -0.90397 2.81475
1.44019 -0.89153498 2.81813
1.45184 -0.89713901 2.8145001
1.42654 -0.88469702 2.8178699
1.41978 -0.87793899 2.8178699
1.40933 -0.86552954 2.8104999
1.41789 -0.85652101 2.8141301
1.46729 -0.851017 2.8182499
1.4383399 -0.84988397 2.8145001
1.4450901 -0.84988397 2.8145001
1.4552801 -0.849922 2.814625
1.4756651 -0.84999698 2.8148701
1.48579 -0.84999698 2.8148701
1.49936 -0.843283 2.8150001
1.51098 -0.835491 2.8115001
1.52171 -0.83768302 2.8188801
1.563885 -0.46528852 2.8156848
1.5547199 -0.455439 2.817435
1.56248 -0.459115 2.8192501
1.5991499 -0.45799601 2.8123801
1.60589 -0.45799601 2.8123801
1.61271 -0.45801601 2.8125
1.545905 -0.4345865 2.8136902
1.54889 -0.425286 2.8191199
1.83916 -0.425172 2.8183801
1.85482 -0.42411599 2.8113699
1.53809 -0.41405702 2.8117499
1.54014 -0.404479 2.8155
1.53135 -0.39719599 2.8117499
1.51779 -0.35671601 2.81163
1.51293 -0.34365499 2.81512
1.7371401 -0.34393001 2.8173699
1.745105 -0.343503 2.81387
1.75757 -0.343961 2.8176301
1.4935533 -0.33434299 2.8125401
1.50618 -0.33690301 2.81512
1.76889 -0.33678299 2.8141301
1.77564 -0.33003399 2.8141301
1.48487 -0.32653999 2.8131251
1.68278 -0.32359999 2.81687
1.78247 -0.32329801 2.81425
1.6454 -0.31004599 2.8164999
1.66927 -0.310087 2.81687
1.67602 -0.316843 2.81687
1.7916 -0.31696999 2.8180001
1.48777 -0.30351901 2.81862
1.644375 -0.30310151 2.81475
1.6534801 -0.30628651 2.813
1.663595 -0.30291301 2.813
1.7869101 -0.30939901 2.8106301
1.4838099 -0.29596901 2.81113
1.6454 -0.296534 2.8164999
1.6534801 -0.296166 2.813
1.663635 -0.2961725 2.8130598
1.79836 -0.29669201 2.8180001
1.52854 -0.28327501 2.819
1.64885 -0.289792 2.8166299
1.65561 -0.286414 2.8166299
1.6641901 -0.28614599 2.8139973
1.79605 -0.286185 2.8143699
1.65561 -0.27627999 2.8166299
1.66236 -0.27627999 2.8166299
1.78929 -0.276059 2.8143699
1.59445 -0.269465 2.816
1.6101 -0.26306 2.8197501
1.65561 -0.26614651 2.8166299
1.68736 -0.262454 2.8132501
1.69411 -0.262454 2.8132501
1.72355 -0.26282701 2.81725
1.7348766 -0.26249632 2.81371
1.74615 -0.262162 2.8101299
1.75642 -0.26218551 2.810375
1.76661 -0.268938 2.8104999
1.77564 -0.26928499 2.8141301
1.61953 -0.255649 2.8126199
1.65561 -0.25601301 2.8166299
1.68062 -0.25570601 2.8132501
1.73722 -0.25609201 2.8175001
1.74394 -0.25559199 2.812
1.75646 -0.25545049 2.8104348
1.6262701 -0.24890301 2.8126199
1.63309 -0.242167 2.8127501
1.6655134 -0.24680199 2.8143299
1.67387 -0.24895801 2.8132501
1.7439599 -0.24547774 2.8120301
1.75638 -0.2486985 2.8103099
1.76661 -0.248715 2.8104999
1.78699 -0.24199501 2.81075
1.6624399 -0.23575599 2.81675
1.73949 -0.235212 2.81025
1.79373 -0.23525301 2.81075
1.64885 -0.22898901 2.8166299
1.65561 -0.22898901 2.8166299
1.66574 -0.22898901 2.8166299
1.6759501 -0.229 2.81675
1.69419 -0.221977 2.81337
1.7032 -0.22227301 2.8171301
1.80047 -0.22177 2.81075
1.71451 -0.174749 2.8134999
1.68062 -0.16798501 2.8132501
1.48579 -0.141076 2.8148701
1.49254 -0.147827 2.8148701
1.48777 -0.13450301 2.81862
1.47563 -0.1241945 2.81481
1.46547 -0.114064 2.81475
1.47412 -0.114211 2.8183801
1.4567699 -0.103799 2.8110001
1.4664149 -0.104002 2.816565
1.4567699 -0.093685202 2.8110001
1.46053 -0.083787307 2.8182499
1.46053 -0.0736477 2.8182499
1.4567699 -0.066715904 2.8110001
1.46736 -0.060130902 2.8183801
1.46547 -0.053302199 2.81475
1.46547 -0.0465509 2.81475
1.4664149 -0.0364452 2.816565
1.44997 -0.0127766 2.8108699
1.46053 -0.0195699 2.8182499
1.4431601 -0.0060343002 2.81075
1.45377 -0.0060504 2.8182499
1.42968 0.0074491799 2.81075
1.43642 0.0040783109 2.81075
1.445055 0.0040792394 2.81444
1.45374 0.00408903 2.8181901
1.42624 0.0141903 2.8106301
1.43642 0.0141909 2.81075
1.4567699 0.0141922 2.8110001
1.46736 0.0142294 2.8183801
1.4161 0.024302 2.810565
1.4262401 0.024302449 2.8106301
1.47904 0.024339199 2.8148701
1.48777 0.0277519 2.81862
1.40933 0.034413099 2.8104999
1.41789 0.034457501 2.8141301
1.426275 0.034415349 2.8106899
1.47904 0.034466699 2.8148701
1.4134368 0.043458566 2.8142099
1.4272101 0.044557001 2.81253
1.4722199 0.04459215 2.81475
1.4025199 0.054634102 2.81037
1.43397 0.0546766 2.8125601
1.47032 0.054648701 2.81113
1.4025199 0.061374899 2.81037
1.43827 0.0648375 2.8143699
1.47904 0.061473198 2.8148701
1.43343 0.075062998 2.81813
1.778 0.25754499 2.8178699
1.78476 0.25754499 2.8178699
1.76661 0.263612 2.8104999
1.77335 0.263612 2.8104999
1.7846899 0.2637935 2.8124349
1.76661 0.27035299 2.8104999
1.79597 0.27071401 2.81425
1.75757 0.298071 2.8176301
1.75305 0.30404499 2.81037
1.81204 1.21746 2.8182499
1.8141201 1.2244401 2.8110001
1.82094 1.2244999 2.81113
1.83004 1.2227 2.81475
1.8140399 1.2345001 2.8108699
1.8751301 1.23478 2.8115001
1.90727 1.23136 2.8191199
1.944675 1.23826 2.8194399
1.8188 1.2445 2.8182499
1.86839 1.24152 2.8115001
1.93448 1.245 2.81938
1.944755 1.24508 2.8195601
1.82556 1.25126 2.8182499
1.86156 1.25495 2.8113699
1.93457 1.25181 2.8195
1.85482 1.26169 2.8113699
1.98217 1.27904 2.81988
1.97541 1.2858 2.81988
1.5850101 -1.19111 2.8232501
1.5781699 -1.1842901 2.8231201
1.5724101 -1.174885 2.824935
1.56664 -1.16547 2.82675
1.5441099 -1.15705 2.8227501
1.92343 -1.1233 2.823
1.93697 -1.1233 2.823
1.8849699 -1.11781 2.8262501
1.89518 -1.114445 2.8263149
1.9302 -1.11652 2.823
1.907595 -1.103615 2.82463
1.9165699 -1.1029299 2.82288
1.92343 -1.09621 2.823
1.9336751 -1.0861051 2.8231201
1.94392 -1.0692199 2.8232501
1.9540751 -1.0624501 2.8232501
1.9643199 -1.0625 2.82337
1.97109 -1.0625 2.82337
1.98049 -1.06391 2.8271301
1.99579 -1.0612299 2.8199999
1.5441099 -1.0216399 2.8227501
1.53931 -1.01617 2.82638
1.52569 -1.00257 2.8262501
1.53247 -1.0093499 2.8262501
1.52569 -0.99579 2.8262501
1.52373 -0.984357 2.8226199
1.5189101 -0.96189499 2.8262501
1.51012 -0.95384902 2.8225
1.52086 -0.95634103 2.82987
1.5032901 -0.94026703 2.8223801
1.5130651 -0.94553053 2.8279948
1.50722 -0.93593699 2.8297501
1.47797 -0.90750301 2.8257501
1.45073 -0.89386803 2.8255
1.4624701 -0.89952999 2.822
1.4348568 -0.88253134 2.8253734
1.44581 -0.88822901 2.8291199
1.4234999 -0.87345999 2.8252499
1.43218 -0.87461901 2.829
1.4234999 -0.86668301 2.8252499
1.43557 -0.86444098 2.829
1.43028 -0.85990697 2.8252499
1.49652 -0.85226202 2.8223801
1.50528 -0.85339397 2.8261199
1.51206 -0.84661603 2.8261199
1.52086 -0.84773898 2.82987
1.5781699 -0.46651801 2.8231201
1.58494 -0.46651801 2.8231201
1.5939 -0.46037701 2.8269999
1.59863 -0.45978701 2.82337
1.55979 -0.44675699 2.8266301
1.84846 -0.42575699 2.8222499
1.85523 -0.42575699 2.8222499
1.551945 -0.41595948 2.8246899
1.83372 -0.419489 2.8256199
1.86893 -0.419025 2.8225
1.8757 -0.419025 2.8225
1.53931 -0.392483 2.82638
1.53253 -0.36536601 2.82638
1.52373 -0.35134101 2.8226199
1.52373 -0.34457099 2.8226199
1.73491 -0.34483001 2.8247499
1.7712899 -0.345319 2.8287499
1.5032901 -0.33100101 2.8223801
1.51451 -0.33462101 2.8243699
1.52425 -0.33527449 2.82987
1.7030649 -0.331016 2.8225
1.719 -0.33759099 2.8208699
1.7860451 -0.33472651 2.8252499
1.49652 -0.32423201 2.8223801
1.50722 -0.32507899 2.8297501
1.64851 -0.324835 2.82763
1.65529 -0.324835 2.82763
1.4896801 -0.31406349 2.8222499
1.50043 -0.31829101 2.8297501
1.63948 -0.310844 2.82375
1.643955 -0.31782749 2.8256249
1.6554201 -0.31742701 2.8220649
1.66458 -0.31047201 2.82037
1.63948 -0.30407101 2.82375
1.80546 -0.30465001 2.8291199
1.49652 -0.297153 2.8223801
1.5032901 -0.29038301 2.8223801
1.51407 -0.29115501 2.82987
1.52086 -0.29115501 2.82987
1.63948 -0.29729801 2.82375
1.642895 -0.29053152 2.8238101
1.81224 -0.291078 2.8291199
1.64632 -0.28376499 2.8238699
1.6509 -0.28338799 2.8201301
1.81224 -0.28429201 2.8291199
1.60753 -0.270529 2.8271301
1.64851 -0.27735901 2.82763
1.65416 -0.27377802 2.825685
1.78943 -0.27035001 2.8252499
1.80314 -0.27715099 2.8255
1.8759201 -0.27060652 2.827935
1.8835133 -0.27508602 2.8274534
1.89183 -0.270457 2.82638
1.61902 -0.26341 2.8234999
1.62795 -0.26376 2.82725
1.65529 -0.26379499 2.82763
1.77344 -0.263212 2.8213699
1.78494 -0.26391101 2.8288801
1.874715 -0.26365501 2.8261251
1.885895 -0.26332247 2.8225598
1.89861 -0.26367801 2.82638
1.63473 -0.25697801 2.82725
1.64166 -0.25021899 2.8275001
1.66207 -0.25023001 2.82763
1.6951699 -0.2563765 2.8206248
1.70547 -0.25639901 2.8208699
1.715615 -0.25639901 2.8208699
1.7235 -0.25028601 2.8282499
1.7337101 -0.25707501 2.828315
1.77588 -0.25679699 2.8252499
1.78266 -0.25002 2.8252499
1.86694 -0.25041801 2.8297501
1.874715 -0.2568765 2.8261251
1.8837199 -0.253328 2.8243752
1.89175 -0.256888 2.8262501
1.6633251 -0.243136 2.8239999
1.67818 -0.242835 2.8204999
1.68607 -0.2463785 2.8223748
1.6940399 -0.24655551 2.8243699
1.7053475 -0.24671975 2.8262801
1.715575 -0.246728 2.826375
1.8656025 -0.244928 2.8251576
1.8757 -0.24639201 2.8225
1.88739 -0.243642 2.82987
1.64421 -0.236049 2.82025
1.6576149 -0.236514 2.825815
1.67476 -0.23606449 2.820435
1.6871099 -0.23637301 2.8241301
1.69396 -0.23638301 2.82425
1.7053699 -0.23655599 2.8263102
1.85769 -0.23653001 2.826
1.8636667 -0.23416601 2.8247936
1.8781101 -0.23654 2.8261199
1.88052 -0.230056 2.8297501
1.68495 -0.229304 2.8204999
1.69179 -0.229315 2.8206301
1.7042 -0.2296195 2.8243752
1.7155399 -0.2263895 2.8263102
1.72129 -0.222865 2.82463
1.7341666 -0.225035 2.8235466
1.8638567 -0.22543 2.8285
1.87253 -0.2265155 2.827935
1.8167 -0.205991 2.8255
1.8167 -0.195825 2.8255
1.70081 -0.17542399 2.8243699
1.49844 -0.141633 2.826
1.504315 -0.144934 2.8243098
1.5150133 -0.14622366 2.8274133
1.5232749 -0.14512649 2.8280602
1.49844 -0.134855 2.826
1.48285 -0.121132 2.82212
1.49166 -0.1246875 2.826
1.48482 -0.114515 2.8258801
1.4780099 -0.1043415 2.82581
1.4867899 -0.10788 2.8296199
1.4712 -0.094176799 2.8257501
1.4712 -0.067065999 2.8257501
1.4799401 -0.053581499 2.8295
1.4799401 -0.04340145 2.8295
1.46924 -0.0263646 2.822
1.4624701 -0.0128272 2.822
1.4721401 -0.016241299 2.8275652
1.4663 -0.00607428 2.82938
1.464355 0.0040954002 2.8256302
1.47308 0.00749854 2.82938
1.4760799 0.0142484 2.82212
1.48482 0.0142673 2.8258801
1.4936399 0.0142868 2.8297501
1.4916 0.021045299 2.8258801
1.50043 0.02446785 2.8297501
1.49166 0.034602899 2.826
1.42161 0.048082799 2.8215001
1.4838951 0.044738397 2.8241248
1.49357 0.0448278 2.8296199
1.41491 0.054852799 2.82162
1.426915 0.054924451 2.825315
1.48285 0.054862499 2.82212
1.49357 0.0550083 2.8296199
1.50043 0.055010699 2.8297501
1.41763 0.065127596 2.827065
1.42539 0.065174453 2.829
1.4346625 0.065135598 2.8272173
1.48962 0.061631501 2.82212
1.4964499 0.061634202 2.8222499
1.50722 0.061797999 2.8297501
1.43224 0.075355999 2.8291199
1.7712899 0.285678 2.8287499
1.75765 0.29923499 2.82862
1.7542551 0.30601999 2.82862
1.8259 1.20864 2.8292501
1.83376 1.20034 2.825685
1.84642 1.20196 2.8295
1.81911 1.21543 2.8292501
1.8279901 1.21908 2.822
1.8259 1.22221 2.8292501
1.8279099 1.2393301 2.8218801
1.8347501 1.23262 2.822
