# .PCD v0.7 - Point Cloud Data file format
VERSION 0.7
FIELDS x y z
SIZE 4 4 4
TYPE F F F
COUNT 1 1 1
WIDTH 1699
HEIGHT 1
VIEWPOINT 0 0 0 1 0 0 0
POINTS 1699
DATA ascii
1.3592499 0.033837602 2.7635
1.85309 1.22253 2.7685001
1.84637 1.23576 2.7683699
1.5451699 -1.20447 2.776
1.53844 -1.18444 2.7758801
1.52978 -1.17625 2.7722499
1.53372 -1.1726 2.7793801
1.54045 -1.17932 2.7795
1.5250601 -1.15776 2.7757499
1.93828 -1.07145 2.7763801
1.47825 -0.95123702 2.7753699
1.47153 -0.94453698 2.77525
1.45815 -0.92452598 2.77513
1.38946 -0.91646397 2.77087
1.36625 -0.90541297 2.77775
1.42468 -0.89112401 2.77475
1.43993 -0.89899302 2.7785001
1.37604 -0.84328097 2.7706299
1.3261 -0.832012 2.77737
1.3344049 -0.83428597 2.773875
1.39303 -0.838862 2.7780001
1.33605 -0.82991499 2.77038
1.50977 -0.45809001 2.77213
1.51167 -0.45201099 2.77562
1.51167 -0.445353 2.77562
1.5136499 -0.43926901 2.7792499
1.50495 -0.42536199 2.7755001
1.4982899 -0.412047 2.7755001
1.50688 -0.41590852 2.7790599
1.50018 -0.40590101 2.779
1.50025 -0.39925399 2.77912
1.49633 -0.37494248 2.7718699
1.48491 -0.352117 2.7753699
1.49157 -0.35877401 2.7753699
1.7439801 -0.31873199 2.7744999
1.75063 -0.31207699 2.7744999
1.75958 -0.305821 2.7781301
1.65687 -0.292007 2.7735
1.75729 -0.29544002 2.7744999
1.6615 -0.28500801 2.7701199
1.75958 -0.285831 2.7781301
1.6681401 -0.27836299 2.7701199
1.68371 -0.27208701 2.77387
1.693725 -0.272093 2.7739348
1.70374 -0.27209899 2.7739999
1.7104 -0.27209899 2.7739999
1.73277 -0.272479 2.7778699
1.75292 -0.279167 2.7781301
1.75729 -0.232219 2.7744999
1.76394 -0.225565 2.7744999
1.4332 -0.13258199 2.7783699
1.42647 -0.095925644 2.77825
1.42647 -0.085929997 2.77825
1.425575 -0.075888544 2.7765
1.42468 -0.065855503 2.77475
1.4313999 -0.052547101 2.7748699
1.42953 -0.045831501 2.77125
1.426175 -0.035860248 2.7711902
1.38456 -0.0059562102 2.77437
1.37625 0.0040304284 2.77775
1.3694 0.033924799 2.7706299
1.3694 0.0405703 2.7706299
1.37964 0.047339398 2.7778699
1.37784 0.053931799 2.77425
1.84197 1.24391 2.77175
1.8264201 1.2579451 2.77338
1.83533 1.25056 2.77175
1.80655 1.2669899 2.77863
1.8159775 1.2632599 2.777755
1.82195 1.2638 2.77163
1.80428 1.27205 2.77513
1.81093 1.27205 2.77513
1.54914 -1.23426 2.7831199
1.54914 -1.22425 2.7831199
1.54914 -1.21424 2.7831199
1.5444 -1.17566 2.7866199
1.53572 -1.16746 2.783
1.53096 -1.15556 2.7865
1.926475 -1.10419 2.78338
1.9433399 -1.06757 2.7836201
1.953355 -1.06089 2.7836201
1.47048 -0.934789 2.7858801
1.40152 -0.92669201 2.78163
1.4656399 -0.92258298 2.7893801
1.36976 -0.914415 2.7848699
1.4555349 -0.90581596 2.7892499
1.4253 -0.88901103 2.789
1.32783 -0.86645001 2.7809999
1.3345 -0.86645001 2.7809999
1.38986 -0.84765601 2.7850001
1.51555 -0.43314701 2.7827499
1.50881 -0.40643099 2.78262
1.5055101 -0.39642799 2.7826848
1.51274 -0.394106 2.78988
1.50214 -0.386408 2.78262
1.50214 -0.36638501 2.78262
1.664535 -0.31611499 2.78075
1.77316 -0.23343299 2.789
1.73271 -0.226703 2.7885001
1.77985 -0.226743 2.789
1.62968 -0.212972 2.78387
1.72378 -0.21972799 2.7848699
1.63636 -0.206295 2.78387
1.64311 -0.172916 2.7839999
1.65201 -0.173149 2.78775
1.715915 -0.173188 2.7883699
1.726035 -0.17286199 2.7831199
1.73496 -0.17275301 2.7813699
1.44842 -0.146101 2.7820001
1.442685 -0.136178 2.7838101
1.43688 -0.126241 2.7855
1.42834 -0.119404 2.7818699
1.4302 -0.112879 2.7855
1.4302 -0.106198 2.7855
1.43875 -0.072886601 2.78912
1.43688 -0.0661107 2.7855
1.43507 -0.059354801 2.7820001
1.37644 0.0140603 2.7848699
1.3755751 0.0240626 2.7831199
1.38498 0.034145199 2.78863
1.38318 0.040780801 2.7850001
1.75963 0.27495 2.7887499
1.7529401 0.28163901 2.7887499
1.85821 1.237 2.7861199
1.7965701 1.245985 2.7838101
1.85153 1.24368 2.7861199
1.7954 1.25518 2.7820001
1.8051367 1.2535399 2.7832868
1.81453 1.253535 2.7857499
1.84484 1.25036 2.7861199
1.7954 1.26186 2.7820001
1.805455 1.2618849 2.7820601
1.56189 -1.22568 2.7939999
1.56189 -1.2156301 2.7939999
1.55986 -1.20401 2.79037
1.90789 -1.13039 2.79037
1.91459 -1.13039 2.79037
1.92128 -1.1237 2.79037
1.8857599 -1.11305 2.79725
1.89247 -1.11305 2.79725
1.95076 -1.06494 2.79425
1.5031199 -0.96531397 2.79688
1.4897 -0.95189703 2.79688
1.49641 -0.958606 2.79688
1.48101 -0.94392198 2.7931199
1.47622 -0.93172997 2.7967501
1.3934799 -0.92353398 2.7922499
1.38002 -0.91679502 2.79212
1.46945 -0.91827297 2.7966199
1.4406199 -0.896905 2.7927499
1.4019901 -0.85096598 2.7958801
1.33966 -0.843014 2.79175
1.40694 -0.84320301 2.7923801
1.52818 -0.46164301 2.7936299
1.52818 -0.45494199 2.7936299
1.52818 -0.448241 2.7936299
1.53016 -0.442114 2.79725
1.53016 -0.435404 2.79725
1.522395 -0.42504349 2.795315
1.5147099 -0.38456798 2.7934999
1.51667 -0.37500301 2.7971301
1.5099 -0.36156899 2.7969999
1.50124 -0.35440001 2.79338
1.48777 -0.340985 2.7932501
1.49447 -0.34768501 2.7932501
1.73722 -0.334584 2.7957499
1.74392 -0.334584 2.7957499
1.75749 -0.32790801 2.796
1.7642 -0.32120201 2.796
1.77091 -0.314495 2.796
1.78 -0.29477099 2.7997501
1.47616 -0.287734 2.7966199
1.78 -0.28805599 2.7997501
1.61572 -0.240585 2.7943699
1.77091 -0.240725 2.796
1.62257 -0.233904 2.7946301
1.634815 -0.22415 2.7983699
1.6652801 -0.17348701 2.793185
1.71024 -0.173631 2.7955
1.64062 -0.166664 2.7911301
1.46078 -0.146672 2.7928801
1.4549899 -0.13670701 2.7946301
1.4473799 -0.12657499 2.7928801
1.4406199 -0.119871 2.7927499
1.44249 -0.096551448 2.79638
1.4492 -0.046247002 2.79638
1.4492 -0.039539699 2.79638
1.7663651 0.26877749 2.7941301
1.75741 0.27565199 2.7958801
1.75071 0.28906399 2.7958801
1.86974 1.22681 2.79338
1.86304 1.23352 2.79338
1.85875 1.24182 2.7969999
1.57673 -1.21183 2.8085001
1.57673 -1.2051001 2.8085001
1.57673 -1.19836 2.8085001
1.54772 -1.16985 2.80475
1.91091 -1.1294399 2.80463
1.89309 -1.11064 2.80813
1.895 -1.10782 2.8010001
1.48677 -0.940871 2.8039999
1.47814 -0.92622101 2.80037
1.48005 -0.92069501 2.8039999
1.47326 -0.91392797 2.80387
1.45295 -0.90039802 2.8036301
1.46653 -0.90720302 2.80387
1.43944 -0.89363301 2.8034999
1.4244051 -0.847619 2.8069999
1.48684 -0.84002501 2.8041301
1.5023 -0.83441401 2.8078699
1.54607 -0.46589932 2.8058331
1.55237 -0.46957999 2.8010001
1.57945 -0.46292299 2.8013699
1.54291 -0.45395601 2.80825
1.54291 -0.44385201 2.80825
1.53512 -0.426716 2.8063149
1.52536 -0.41579601 2.80075
1.527365 -0.40624899 2.80444
1.52257 -0.369726 2.8080001
1.5056651 -0.34613752 2.8078699
1.75752 -0.33590099 2.8067501
1.47135 -0.32168999 2.8002501
1.70556 -0.32953501 2.80988
1.47135 -0.314973 2.8002501
1.46457 -0.30152699 2.8001201
1.47516 -0.30568799 2.8074999
1.7823 -0.30187699 2.80338
1.4731899 -0.295192 2.80375
1.48677 -0.28849301 2.8039999
1.68519 -0.17450801 2.8096199
1.65381 -0.167321 2.80212
1.665005 -0.16743299 2.8039999
1.46457 -0.14033701 2.8001201
1.4723051 -0.143792 2.8020601
1.48005 -0.147256 2.8039999
1.46647 -0.133793 2.80375
1.44436 -0.113467 2.8
1.44436 -0.106751 2.8
1.44436 -0.086602703 2.8
1.44436 -0.079886697 2.8
1.452985 -0.05645955 2.8036849
1.4546299 0.065681331 2.8025367
1.4648533 0.063495368 2.8049533
1.47471 0.067870401 2.8002501
1.78222 0.269656 2.8032501
1.75071 0.31037101 2.8066199
1.8117 1.24638 2.80725
1.58087 -1.22177 2.8158801
1.58087 -1.19476 2.8158801
1.54697 -1.16088 2.8156199
1.554755 -1.165035 2.8175001
1.93208 -1.13397 2.8158801
1.88533 -1.11877 2.81163
1.98647 -1.06662 2.81638
1.51293 -0.96486098 2.81512
1.49743 -0.95008898 2.8113699
1.50424 -0.95687503 2.8115001
1.41978 -0.87793899 2.8178699
1.40933 -0.86552954 2.8104999
1.41789 -0.85652101 2.8141301
1.46729 -0.851017 2.8182499
1.4383399 -0.84988397 2.8145001
1.4450901 -0.84988397 2.8145001
1.4552801 -0.849922 2.814625
1.4756651 -0.84999698 2.8148701
1.48579 -0.84999698 2.8148701
1.49936 -0.843283 2.8150001
1.51098 -0.835491 2.8115001
1.52171 -0.83768302 2.8188801
1.563885 -0.46528852 2.8156848
1.5547199 -0.455439 2.817435
1.56248 -0.459115 2.8192501
1.5991499 -0.45799601 2.8123801
1.60589 -0.45799601 2.8123801
1.61271 -0.45801601 2.8125
1.545905 -0.4345865 2.8136902
1.54889 -0.425286 2.8191199
1.83916 -0.425172 2.8183801
1.85482 -0.42411599 2.8113699
1.53809 -0.41405702 2.8117499
1.54014 -0.404479 2.8155
1.53135 -0.39719599 2.8117499
1.51779 -0.35671601 2.81163
1.51293 -0.34365499 2.81512
1.7371401 -0.34393001 2.8173699
1.745105 -0.343503 2.81387
1.75757 -0.343961 2.8176301
1.4935533 -0.33434299 2.8125401
1.76889 -0.33678299 2.8141301
1.77564 -0.33003399 2.8141301
1.48487 -0.32653999 2.8131251
1.68278 -0.32359999 2.81687
1.78247 -0.32329801 2.81425
1.7916 -0.31696999 2.8180001
1.48777 -0.30351901 2.81862
1.7869101 -0.30939901 2.8106301
1.4838099 -0.29596901 2.81113
1.79836 -0.29669201 2.8180001
1.52854 -0.28327501 2.819
1.79605 -0.286185 2.8143699
1.59445 -0.269465 2.816
1.6101 -0.26306 2.8197501
1.61953 -0.255649 2.8126199
1.78699 -0.24199501 2.81075
1.79373 -0.23525301 2.81075
1.80047 -0.22177 2.81075
1.71451 -0.174749 2.8134999
1.68062 -0.16798501 2.8132501
1.48579 -0.141076 2.8148701
1.49254 -0.147827 2.8148701
1.4567699 -0.093685202 2.8110001
1.46053 -0.083787307 2.8182499
1.46053 -0.0736477 2.8182499
1.4567699 -0.066715904 2.8110001
1.46736 -0.060130902 2.8183801
1.46547 -0.053302199 2.81475
1.46547 -0.0465509 2.81475
1.4025199 0.054634102 2.81037
1.4025199 0.061374899 2.81037
1.47904 0.061473198 2.8148701
1.43343 0.075062998 2.81813
1.778 0.25754499 2.8178699
1.78476 0.25754499 2.8178699
1.76661 0.263612 2.8104999
1.77335 0.263612 2.8104999
1.7846899 0.2637935 2.8124349
1.76661 0.27035299 2.8104999
1.79597 0.27071401 2.81425
1.75757 0.298071 2.8176301
1.75305 0.30404499 2.81037
1.81204 1.21746 2.8182499
1.8141201 1.2244401 2.8110001
1.82094 1.2244999 2.81113
1.8140399 1.2345001 2.8108699
1.8751301 1.23478 2.8115001
1.90727 1.23136 2.8191199
1.944675 1.23826 2.8194399
1.86839 1.24152 2.8115001
1.93448 1.245 2.81938
1.944755 1.24508 2.8195601
1.86156 1.25495 2.8113699
1.93457 1.25181 2.8195
1.85482 1.26169 2.8113699
1.98217 1.27904 2.81988
1.97541 1.2858 2.81988
1.5441099 -1.15705 2.8227501
1.8849699 -1.11781 2.8262501
1.99579 -1.0612299 2.8199999
1.5441099 -1.0216399 2.8227501
1.53931 -1.01617 2.82638
1.52569 -1.00257 2.8262501
1.53247 -1.0093499 2.8262501
1.52569 -0.99579 2.8262501
1.52373 -0.984357 2.8226199
1.4234999 -0.87345999 2.8252499
1.43218 -0.87461901 2.829
1.4234999 -0.86668301 2.8252499
1.43557 -0.86444098 2.829
1.43028 -0.85990697 2.8252499
1.49652 -0.85226202 2.8223801
1.50528 -0.85339397 2.8261199
1.51206 -0.84661603 2.8261199
1.52086 -0.84773898 2.82987
1.5781699 -0.46651801 2.8231201
1.58494 -0.46651801 2.8231201
1.84846 -0.42575699 2.8222499
1.85523 -0.42575699 2.8222499
1.551945 -0.41595948 2.8246899
1.83372 -0.419489 2.8256199
1.86893 -0.419025 2.8225
1.8757 -0.419025 2.8225
1.53931 -0.392483 2.82638
1.53253 -0.36536601 2.82638
1.52373 -0.35134101 2.8226199
1.73491 -0.34483001 2.8247499
1.7030649 -0.331016 2.8225
1.719 -0.33759099 2.8208699
1.7860451 -0.33472651 2.8252499
1.4896801 -0.31406349 2.8222499
1.80546 -0.30465001 2.8291199
1.49652 -0.297153 2.8223801
1.5032901 -0.29038301 2.8223801
1.51407 -0.29115501 2.82987
1.52086 -0.29115501 2.82987
1.81224 -0.291078 2.8291199
1.81224 -0.28429201 2.8291199
1.60753 -0.270529 2.8271301
1.8167 -0.205991 2.8255
1.8167 -0.195825 2.8255
1.70081 -0.17542399 2.8243699
1.49844 -0.141633 2.826
1.504315 -0.144934 2.8243098
1.5150133 -0.14622366 2.8274133
1.5232749 -0.14512649 2.8280602
1.4712 -0.067065999 2.8257501
1.49357 0.0550083 2.8296199
1.50043 0.055010699 2.8297501
1.41763 0.065127596 2.827065
1.42539 0.065174453 2.829
1.4346625 0.065135598 2.8272173
1.48962 0.061631501 2.82212
1.4964499 0.061634202 2.8222499
1.50722 0.061797999 2.8297501
1.43224 0.075355999 2.8291199
1.7712899 0.285678 2.8287499
1.75765 0.29923499 2.82862
1.7542551 0.30601999 2.82862
1.8259 1.20864 2.8292501
1.83376 1.20034 2.825685
1.84642 1.20196 2.8295
1.81911 1.21543 2.8292501
1.8279901 1.21908 2.822
1.8259 1.22221 2.8292501
1.95746 1.2365501 2.8232501
1.96684 1.2348 2.8269999
1.95755 1.24676 2.82337
1.96684 1.2449701 2.8269999
1.9737099 1.2450299 2.8271301
1.84642 1.25625 2.8295
1.8737299 1.2563699 2.8297501
1.95328 1.2551399 2.8269999
1.846215 1.2639699 2.8239999
1.85426 1.264835 2.8259349
1.86694 1.26315 2.8297501
1.996335 1.26467 2.8255601
1.60017 -1.21781 2.83812
1.59806 -1.2060001 2.8343699
1.55706 -1.16166 2.8340001
1.94461 -1.1345201 2.83413
1.5933599 -1.1157 2.83812
1.895795 -1.1154 2.8373699
1.60017 -1.1088901 2.83812
1.98999 -1.06537 2.8310001
1.99687 -1.06541 2.83113
2.00366 -1.05862 2.83113
1.585405 -1.04346 2.8360651
1.59329 -1.044175 2.8380001
1.56393 -1.03255 2.83413
1.5741251 -1.03935 2.83413
1.54475 -1.014125 2.8301301
1.53457 -1.00394 2.8301301
1.444265 -0.865587 2.8327501
1.45645 -0.86336899 2.8366301
1.5345 -0.84098899 2.8299999
1.54129 -0.83420098 2.8299999
1.63011 -0.46102899 2.8310001
1.85123 -0.421159 2.83687
1.86933 -0.42063901 2.83337
1.5502 -0.40032199 2.8338699
1.5434 -0.38672799 2.8338699
1.5434 -0.37992999 2.8338699
1.5345 -0.35565299 2.8299999
1.74862 -0.35300601 2.836
1.7325701 -0.34571499 2.832
1.69846 -0.33210099 2.8317499
1.72346 -0.33980501 2.83938
1.6847301 -0.32528001 2.8315001
1.80098 -0.325423 2.8327501
1.81016 -0.31224701 2.8364999
1.52974 -0.291554 2.83375
1.81705 -0.29865301 2.8366301
1.54814 -0.27760401 2.8301301
1.8146501 -0.23030999 2.83288
1.82144 -0.216721 2.83288
1.53857 -0.14901599 2.8375001
1.75086 0.23909999 2.8396201
1.75543 0.245597 2.836
1.76223 0.25580001 2.836
1.7827899 0.259224 2.8362501
1.77599 0.266027 2.8362501
1.774775 0.27604049 2.8343101
1.76571 0.293226 2.8361199
1.86933 1.19681 2.83337
1.85566 1.20355 2.83325
1.86254 1.2036099 2.83337
1.836365 1.2144749 2.83494
1.8443066 1.2125967 2.83321
1.97886 1.2346799 2.8345001
1.9857399 1.24493 2.83463
1.85123 1.25272 2.83687
1.94891 1.2567 2.8304999
2.0062301 1.25858 2.8347499
1.94469 1.26516 2.83425
1.95398 1.26678 2.8378699
1.94718 1.27359 2.8378699
1.94718 1.28039 2.8378699
1.6044 -1.22785 2.8456199
1.61335 -1.2158 2.84938
1.88606 -1.11973 2.8483801
1.8904901 -1.1183 2.8447499
1.5954 -1.0626 2.8417499
1.99436 -1.0627151 2.8420601
2.0046301 -1.06274 2.8421199
1.5954 -1.0557801 2.8417499
1.6044 -1.05039 2.8456199
1.6064399 -1.0448999 2.8492501
1.5515 -0.84656101 2.8487501
1.6434 -0.462861 2.8422501
1.65022 -0.462861 2.8422501
1.63867 -0.45662501 2.84588
1.8380001 -0.422811 2.848
1.8639801 -0.42173401 2.84075
1.84483 -0.415979 2.848
1.85166 -0.415979 2.848
1.5543 -0.394566 2.8413799
1.557375 -0.38510197 2.8470001
1.54741 -0.37410399 2.8412499
1.73484 -0.34753099 2.8468699
1.69824 -0.33339101 2.8427501
1.6867501 -0.326989 2.84637
1.81256 -0.31947199 2.84025
1.82177 -0.31307301 2.8440001
1.81937 -0.30584699 2.84025
1.5494601 -0.285887 2.845
1.56523 -0.27944401 2.8488801
1.574515 -0.27927202 2.8471301
1.5837899 -0.2791 2.8453801
1.96173 -0.21112999 2.8491199
1.95915 -0.204028 2.8453801
1.82618 -0.190035 2.84025
1.9451799 -0.19466799 2.8415802
1.955735 -0.1937905 2.8453801
1.81937 -0.18322299 2.84025
1.83109 -0.183714 2.8478799
1.81495 -0.176643 2.8440001
1.53372 -0.142391 2.84113
1.5515 -0.149606 2.8487501
1.5269001 -0.13557699 2.84113
1.5151401 0.0552999 2.84462
1.52397 0.062204801 2.8483801
1.76689 0.266707 2.8434999
1.77605 0.26364452 2.84725
1.7828799 0.26023 2.84725
1.76922 0.27388799 2.84725
1.77605 0.27388799 2.84725
1.884505 1.19657 2.8408699
1.87428 1.20679 2.8408699
1.88606 1.20998 2.8483801
1.86985 1.21516 2.8445001
1.87923 1.21681 2.8483801
1.8330801 1.22021 2.8403699
1.90413 1.24255 2.8447499
1.9144499 1.24261 2.8448801
1.99436 1.2447901 2.8420601
2.00472 1.24828 2.8422501
2.0141501 1.24648 2.8459401
2.0046301 1.25504 2.8421199
2.0114501 1.25504 2.8421199
2.0046301 1.26186 2.8421199
1.95915 1.27695 2.8453801
1.99616 1.28564 2.8494999
1.9893301 1.29931 2.8494999
1.99616 1.29247 2.8494999
1.62445 -1.28067 2.8568699
1.6176701 -1.2259099 2.8570001
1.67523 -1.22291 2.8499999
1.68206 -1.2160701 2.8499999
1.56038 -1.1624 2.8525
1.55361 -1.15561 2.8526199
1.90924 -1.11446 2.85238
1.46415 -0.88503402 2.85162
1.46415 -0.87477398 2.85162
1.47444 -0.867953 2.851685
1.561475 -0.84484851 2.854495
1.56935 -0.83512402 2.85637
1.57621 -0.828273 2.85637
1.58313 -0.82145798 2.8564999
1.6566666 -0.45388797 2.85729
1.66585 -0.45846999 2.8573699
1.83591 -0.43075401 2.8553801
1.87971 -0.41765901 2.8594999
1.8841799 -0.41712999 2.85588
1.89103 -0.41712999 2.85588
1.90045 -0.417696 2.85975
1.5545599 -0.36556047 2.8543749
1.74634 -0.35530901 2.8545001
1.75088 -0.35484201 2.85075
1.715305 -0.34156999 2.85413
1.72338 -0.34113699 2.8505001
1.73485 -0.348905 2.85812
1.695765 -0.33492249 2.8558149
1.82658 -0.32073799 2.8515
1.926425 -0.27637801 2.8525
1.93932 -0.26647699 2.85637
1.96689 -0.218538 2.8566301
1.97383 -0.211695 2.85675
1.97383 -0.204843 2.85675
1.8349299 -0.17758599 2.859185
1.54663 -0.14295501 2.85238
1.53979 -0.136114 2.85238
1.52604 0.0554481 2.8522501
1.53698 0.0555964 2.85987
1.5369101 0.062453199 2.85975
1.5438401 0.0624559 2.85987
1.76703 0.240373 2.8547499
1.7738 0.24721 2.85462
1.77847 0.25374499 2.85113
1.78773 0.25409001 2.855
1.79686 0.25392851 2.8531899
1.7749701 0.28450602 2.8510001
1.90045 1.21481 2.85975
1.89351 1.22162 2.8596301
1.8704 1.26791 2.8557501
1.87725 1.27476 2.8557501
1.99186 1.2872699 2.8531301
1.61497 -1.2703 2.8643799
1.625345 -1.27722 2.8645
1.63565 -1.27722 2.8645
1.64267 -1.27046 2.8647499
1.61286 -1.24119 2.86063
1.92624 -1.1066099 2.8675001
1.61286 -1.09024 2.86063
1.9332 -1.09978 2.86762
1.61497 -1.06419 2.8643799
1.99718 -1.06284 2.86075
1.9651901 -1.03661 2.86413
1.5895 -0.831644 2.868
1.59638 -0.82476503 2.868
1.6741234 -0.4549053 2.8637066
1.68404 -0.452822 2.865
1.673735 -0.44595 2.865
1.6740767 -0.43717399 2.8675432
1.84322 -0.425594 2.86675
1.87429 -0.41874552 2.866935
1.81548 -0.384287 2.86637
1.82235 -0.384287 2.86637
1.76712 -0.370489 2.8659999
1.774 -0.370489 2.8659999
1.75673 -0.3635985 2.865875
1.73479 -0.35027799 2.86937
1.74635 -0.356709 2.8657501
1.70951 -0.34246799 2.8616199
1.9375401 -0.28091499 2.8638699
1.94441 -0.274046 2.8638699
1.96956 -0.225695 2.8605001
1.98169 -0.219418 2.86812
1.93492 -0.191356 2.8599999
1.54796 -0.129958 2.8675001
1.62411 -0.095597401 2.8683801
1.62411 -0.088717498 2.8683801
1.56178 0.048868898 2.86762
1.54593 0.055671699 2.86375
1.55287 0.055674098 2.8638699
1.90552 1.22493 2.8673699
1.89732 1.234385 2.865375
1.89856 1.24551 2.86725
1.90544 1.24551 2.86725
2.0041299 1.24274 2.8608699
1.8753099 1.2575001 2.86325
1.8939201 1.2546366 2.8671701
1.8753099 1.26437 2.86325
1.88481 1.26614 2.86725
1.89168 1.26614 2.86725
1.88472 1.2729599 2.86713
1.8916 1.2729599 2.86713
1.97642 1.28374 2.8605001
1.98329 1.28374 2.8605001
1.98866 1.2941 2.8682499
1.99375 1.294145 2.86075
1.9929299 1.3027101 2.8645
1.62835 -1.2754 2.87587
1.6329 -1.2728 2.877815
1.64222 -1.27545 2.8759999
1.62146 -1.2650499 2.87587
1.61927 -1.25301 2.872
1.57495 -1.16635 2.8791299
1.56804 -1.15944 2.8791299
1.58541 -1.15606 2.8793101
1.5889 -1.1388201 2.87937
1.9140301 -1.1232951 2.875
1.92187 -1.1149499 2.8712499
1.93144 -1.10271 2.8752501
1.93615 -1.096525 2.877125
1.9438066 -1.0917 2.876543
1.95476 -1.08348 2.8791299
1.97299 -1.03383 2.8755
1.58462 -0.83958298 2.8716199
1.5950251 -0.8361755 2.8717501
1.6885999 -0.44715601 2.87275
1.6908 -0.44084001 2.8764999
1.68164 -0.43335599 2.8726299
1.6839 -0.42704201 2.8764999
1.87831 -0.41351199 2.8783801
1.89424 -0.412471 2.87112
1.90113 -0.412471 2.87112
1.8109699 -0.38479 2.8701301
1.7671601 -0.371943 2.87725
1.78802 -0.37887701 2.8775001
1.79024 -0.37788999 2.8699999
1.7325 -0.35120901 2.8770001
1.70701 -0.34403849 2.8747501
1.83665 -0.344428 2.878
1.91757 -0.30270699 2.8751199
1.9244601 -0.295811 2.8751199
1.93136 -0.28891501 2.8751199
1.95222 -0.28204301 2.87538
1.95911 -0.27514601 2.87538
1.94959 -0.26100001 2.8715
1.95911 -0.26824901 2.87538
1.955665 -0.24411049 2.87538
1.9661 -0.24067301 2.8755
1.97565 -0.240997 2.87937
1.98006 -0.233796 2.8757501
1.91308 -0.185706 2.8787501
1.8352649 -0.17140001 2.870435
1.84563 -0.171404 2.8705001
1.8565334 -0.17615335 2.8731668
1.557 -0.137026 2.8715
1.55005 -0.123246 2.8713801
1.55207 -0.116511 2.8751199
1.53821 -0.102714 2.875
1.54511 -0.10961 2.875
1.62842 -0.10275 2.8759999
1.6353199 -0.10275 2.8759999
1.53132 -0.095818199 2.875
1.62146 -0.095847398 2.87587
1.63525 -0.095847398 2.87587
1.64222 -0.0958516 2.8759999
1.52538 -0.085526004 2.8768151
1.62146 -0.088949502 2.87587
1.6443599 -0.089069299 2.87975
1.52641 -0.075228699 2.8787501
1.52538 -0.064830102 2.8768151
1.53125 -0.047545198 2.8748801
1.53821 -0.0337556 2.875
1.53821 -0.026859799 2.875
1.53821 -0.016516 2.875
1.5742199 0.0420474 2.8715
1.91308 1.23669 2.8787501
1.91308 1.2436 2.8787501
1.9199899 1.2505 2.8787501
1.9773999 1.29573 2.8718801
1.98437 1.29579 2.872
1.643185 -1.271975 2.88375
1.65141 -1.2703201 2.8800001
1.63494 -1.2667 2.8875
1.64536 -1.2667251 2.8875599
1.71503 -1.21507 2.8882499
1.72542 -1.21161 2.8882501
1.57707 -1.161 2.8829999
1.57707 -1.15409 2.8829999
1.58398 -1.15409 2.8829999
1.58398 -1.1471699 2.8829999
1.9531 -1.08639 2.8868699
1.96003 -1.07947 2.8868699
1.9670399 -1.06567 2.8870001
1.64186 -1.0346849 2.8875
1.60702 -0.84411502 2.88713
1.69756 -0.43567601 2.888
1.68837 -0.42125601 2.88412
1.67919 -0.41378099 2.88025
1.89375 -0.41462499 2.8861301
1.7882299 -0.380391 2.8889999
1.81124 -0.38631499 2.8815
1.8579299 -0.36661199 2.8896301
1.72549 -0.352597 2.8883801
1.7301 -0.35212401 2.8845
1.75336 -0.35955599 2.8886199
1.847275 -0.35549653 2.8838151
1.84852 -0.345355 2.8857501
1.85544 -0.33843401 2.8857501
1.91557 -0.310397 2.8824999
1.92515 -0.310828 2.8864999
1.9296499 -0.303523 2.88287
1.93917 -0.303931 2.88675
1.93657 -0.296608 2.88287
1.94609 -0.29700699 2.88675
1.95302 -0.29008299 2.88675
1.94348 -0.289693 2.88287
1.9670399 -0.262409 2.8870001
1.96003 -0.255474 2.8868699
1.9669501 -0.248549 2.8868699
1.875335 -0.172553 2.88975
1.88337 -0.172337 2.8861301
1.9052 -0.175577 2.8824999
1.62787 -0.103152 2.8872499
1.54229 -0.040759299 2.8826301
1.574705 0.0353253 2.885
1.7091399 -1.22175 2.89587
1.7043999 -1.21638 2.8996301
1.7137901 -1.215645 2.8978748
1.72541 -1.20953 2.8998699
1.59517 -1.15025 2.8907499
1.93467 -1.11544 2.8903699
1.96529 -1.07542 2.8946199
1.9687999 -1.0650351 2.89469
1.65543 -1.0562299 2.8991301
1.96968 -1.05323 2.8908801
1.9765199 -1.04625 2.8907499
1.62052 -0.83364397 2.89887
1.68589 -0.40849799 2.8917501
1.69041 -0.40263799 2.8994999
1.89095 -0.409345 2.8977499
1.68121 -0.395154 2.8956299
1.82793 -0.39534199 2.8970001
1.8139499 -0.38837701 2.8968699
1.7043999 -0.360926 2.8996301
1.86291 -0.36064601 2.8973801
1.7068501 -0.35304001 2.892
1.7137901 -0.35304001 2.892
1.7207201 -0.35304001 2.892
1.88843 -0.325504 2.8938701
1.89791 -0.32594001 2.8977499
1.8963749 -0.31815001 2.89013
1.90933 -0.31857699 2.8940001
1.93727 -0.31166199 2.8942499
1.98191 -0.263466 2.8986199
1.9695899 -0.255817 2.8907499
1.98191 -0.256513 2.8986199
1.9766099 -0.24889401 2.8908801
1.91892 -0.17304599 2.898
1.9233 -0.179756 2.89412
1.8664651 -0.16606601 2.8975
1.89545 -0.165866 2.8940001
1.90239 -0.165866 2.8940001
1.56037 -0.110201 2.8905001
1.63925 -0.110377 2.8951199
1.64847 -0.11053 2.8991301
1.55344 -0.103268 2.8905001
1.65543 -0.103576 2.8991301
1.54851 -0.096459799 2.8942499
1.66245 -0.096626401 2.89925
1.5415699 -0.089517802 2.8942499
1.65107 -0.082497299 2.8915
1.66245 -0.089672402 2.89925
1.54357 -0.061829701 2.898
1.53944 -0.054731902 2.89025
1.5903701 0.035443101 2.8946199
1.716 -1.11508 2.9075
1.68331 -1.0758801 2.9052448
1.65992 -1.05213 2.9070001
1.65992 -1.0451601 2.9070001
1.65992 -1.0346999 2.9070001
1.65992 -1.02424 2.9070001
1.65992 -1.013785 2.9070001
1.6262 -0.85566354 2.9028101
1.6226799 -0.84520197 2.90275
1.86093 -0.43825901 2.9051199
1.69971 -0.41712201 2.9035001
1.70198 -0.410705 2.9073801
1.86093 -0.417355 2.9051199
1.88644 -0.402915 2.9015
1.69267 -0.39621201 2.9033699
1.68571 -0.385766 2.9033699
1.78839 -0.381906 2.9005001
1.81426 -0.38993499 2.9085
1.69971 -0.36837199 2.9035001
1.7371401 -0.36195299 2.9078801
1.74412 -0.36195299 2.9078801
1.8679 -0.354642 2.9051199
1.8679 -0.34767401 2.9051199
1.87486 -0.34070599 2.9051199
1.88896 -0.33376601 2.90538
1.91003 -0.32682601 2.9056301
1.92405 -0.31987 2.90575
1.8854749 -0.166518 2.90538
1.8959301 -0.166518 2.90538
1.63893 -0.110825 2.9068699
1.56665 -0.103683 2.9021201
1.55969 -0.096722297 2.9021201
1.5457 -0.082796901 2.902
1.55266 -0.089757502 2.902
1.54776 -0.075937502 2.90587
1.5957301 0.02511085 2.9043751
1.6038001 0.028615899 2.9063699
1.60514 0.035539601 2.9024999
1.73938 -1.21443 2.9116199
1.7265251 -1.204725 2.9134998
1.7358999 -1.20638 2.9175
1.73001 -1.19666 2.9193699
1.73709 -1.1827 2.9195001
1.73709 -1.1756999 2.9195001
1.72293 -1.14759 2.91925
1.72065 -1.13907 2.91537
1.71593 -1.10558 2.91925
1.706555 -1.09355 2.9151902
1.70178 -1.08448 2.9189999
1.69478 -1.07748 2.9189999
1.6737 -1.01442 2.91887
1.6643851 -1.0025201 2.9148149
1.6737 -1.0074199 2.91887
1.6584599 -0.88423651 2.9166899
1.65029 -0.86613703 2.9146199
1.63407 -0.85098499 2.91062
1.64105 -0.85796702 2.91062
1.63407 -0.84400398 2.91062
1.63624 -0.83813697 2.9145
1.85192 -0.41148201 2.9128699
1.83324 -0.39800301 2.9165001
1.69719 -0.376322 2.9111199
1.72418 -0.362894 2.9154348
1.73471 -0.36290199 2.9154999
1.58215 -0.118243 2.9178801
1.64803 -0.117949 2.91062
1.566 -0.090124801 2.9138801
1.60807 0.0217025 2.91412
1.6152 0.025199551 2.9143801
1.62219 0.0286947 2.9143801
1.7464 -1.21232 2.9233699
1.73939 -1.19479 2.9233699
1.74879 -1.18589 2.9273801
1.74528 -1.17536 2.9273801
1.73238 -1.16324 2.9233699
1.7346801 -1.14371 2.9272499
1.73238 -1.13519 2.9233699
1.73238 -1.12818 2.9233699
1.7252899 -1.1141 2.92325
1.68301 -1.0719 2.9228699
1.676 -1.06489 2.9228699
1.67822 -1.04524 2.9267499
1.67822 -1.03471 2.9267499
1.67822 -1.0241801 2.9267499
1.67593 -1.00175 2.92275
1.66892 -0.99473798 2.92275
1.6711299 -0.98903698 2.92663
1.66892 -0.96669698 2.92275
1.67593 -0.952676 2.92275
1.6841249 -0.935812 2.9248099
1.67822 -0.89782 2.9267499
1.66892 -0.88958198 2.92275
1.6641099 -0.87672198 2.92663
1.65702 -0.86264598 2.9265001
1.64774 -0.85445702 2.9224999
1.64993 -0.848571 2.9263699
1.86896 -0.42073101 2.9286301
1.87598 -0.42775601 2.9286301
1.84276 -0.405554 2.9205
1.70411 -0.39187899 2.9230001
1.81458 -0.39151001 2.9202499
1.88511 -0.39161101 2.921
1.89211 -0.398617 2.921
1.70411 -0.384868 2.9230001
1.88511 -0.370592 2.921
1.88511 -0.36358601 2.921
1.59568 -0.13278399 2.9298699
1.5864201 -0.111545 2.92575
1.6217099 0.0147734 2.9261301
1.7511801 -1.20509 2.93138
1.7511801 -1.19454 2.93138
1.7370501 -1.155825 2.9312501
1.72291 -1.10305 2.9311199
1.72049 -1.09191 2.9389999
1.7134399 -1.08486 2.9389999
1.6804399 -1.06068 2.93062
1.6804399 -1.05365 2.93062
1.69215 -1.0565701 2.93875
1.68985 -1.04458 2.9347501
1.6992 -1.046 2.93875
1.69215 -1.03543 2.93875
1.695675 -1.024855 2.93875
1.6992 -1.01428 2.93875
1.6734101 -0.98335999 2.93062
1.6734101 -0.97632998 2.93062
1.68274 -0.96358502 2.9346199
1.68985 -0.94954801 2.9347501
1.6992 -0.94379401 2.93875
1.6946501 -0.93423498 2.9308801
1.70632 -0.93678498 2.93887
1.69577 -0.92429805 2.9328151
1.70632 -0.92973602 2.93887
1.6992 -0.91559899 2.93875
1.68985 -0.90731299 2.9347501
1.68503 -0.89441401 2.9386301
1.6756949 -0.88263345 2.9346251
1.6685899 -0.87204301 2.9345
1.85989 -0.414819 2.9365001
1.63319 -0.147052 2.9341199
1.6592799 -0.12578399 2.9305
1.65218 -0.11875 2.9303801
1.66631 -0.118755 2.9305
1.67334 -0.111726 2.9305
1.59076 -0.104813 2.9337499
1.6828099 -0.083731301 2.9347501
1.67791 -0.076790102 2.9384999
1.66155 -0.062608503 2.9345
1.6708601 -0.069742002 2.9384999
1.66155 -0.055569898 2.9345
1.66374 -0.048595399 2.93837
1.63541 0.014834 2.9381199
1.634475 0.02533575 2.93012
1.70382 -1.08065 2.9467499
1.6967601 -1.07359 2.9467499
1.6967601 -1.06652 2.9467499
1.70151 -1.03684 2.94275
1.70151 -1.02978 2.94275
1.71096 -1.013555 2.9468801
1.70382 -1.00291 2.9467499
1.68732 -0.98385704 2.9426301
1.68732 -0.97327 2.9426301
1.69445 -0.95919502 2.94275
1.70382 -0.95343101 2.9467499
1.70864 -0.92394203 2.9428699
1.70382 -0.91102302 2.9467499
1.71096 -0.91812998 2.9468801
1.69445 -0.90272802 2.94275
1.66827 -0.86143798 2.9463699
1.86948 -0.42243701 2.9405
1.60651 -0.12661 2.9497499
1.67541 -0.062864497 2.9465001
1.67541 -0.0557971 2.9465001
1.66601 -0.041604102 2.9423699
1.66827 -0.034593601 2.9463699
1.63986 0.0078079598 2.94613
1.71329 -1.08217 2.9508801
1.70621 -1.0750901 2.9508801
1.707365 -1.0651951 2.9528751
1.71329 -1.0538599 2.9508801
1.71329 -1.04678 2.9508801
1.71329 -1.03616 2.9508801
1.71329 -1.02554 2.9508801
1.71561 -1.00567 2.95487
1.704975 -0.99504048 2.95487
1.70374 -0.98574197 2.9588699
1.70374 -0.97154802 2.9588699
1.71083 -0.96445101 2.9588699
1.71561 -0.94897199 2.95487
1.71561 -0.913535 2.95487
1.7085201 -0.90644801 2.95487
1.695485 -0.89454699 2.950685
1.67996 -0.87089998 2.9545
1.6894 -0.87921202 2.9586301
1.6243651 -0.140775 2.9500599
1.6137201 -0.133697 2.95
1.66346 -0.126637 2.9503801
1.67882 -0.045285799 2.9524999
1.66346 -0.020487299 2.9503801
1.67287 -0.027602499 2.9545
1.6563801 -0.0134107 2.9503801
1.64432 -0.0063421 2.9541199
1.6514699 -0.0063423701 2.9542501
1.64439 0.00074356003 2.9542501
1.72033 -1.00133 2.9630001
1.71315 -0.99418098 2.9628699
1.71553 -0.98489046 2.967
1.70604 -0.97996801 2.9628699
1.71322 -0.972902 2.9630001
1.72272 -0.9635815 2.9671199
1.70123 -0.88878 2.9668801
1.68692 -0.86739498 2.9667499
1.64884 -0.141357 2.96225
1.65595 -0.148462 2.96225
1.66312 -0.127152 2.9623699
1.68458 -0.034784399 2.96263
1.65825 0.00074661197 2.9663799
1.7262399 -0.99407303 2.9731851
1.72983 -0.985425 2.9793701
1.72983 -0.97827899 2.9793701
1.7179199 -0.90430599 2.9711201
1.71079 -0.89718002 2.9711201
1.70104 -0.87812197 2.9790001
1.69389 -0.86383098 2.9790001
1.66286 -0.141947 2.9746301
1.66286 -0.134813 2.9746301
1.6735649 -0.134813 2.9746301
1.78508 -1.163915 2.9881301
1.77784 -1.14595 2.9879999
1.77784 -1.13878 2.9879999
1.7417901 -1.084895 2.9876201
1.7417901 -1.07415 2.9876201
1.73939 -1.06551 2.9835
1.73939 -1.0154099 2.9835
1.7417901 -0.95232397 2.9876201
1.68901 -0.85068101 2.983
1.83556 -0.407846 2.9886301
1.8066601 -0.38629201 2.98825
1.63858 -0.113704 2.9823699
1.63858 -0.10655 2.9823699
1.79001 -1.1851 2.9963801
1.7948033 -1.1755133 2.9963801
1.78275 -1.13474 2.9962499
1.7683001 -1.12032 2.99612
1.77549 -1.12751 2.99612
1.75862 -1.11155 2.9918699
1.74419 -1.0541 2.99175
1.7466 -1.044775 2.9958701
1.74419 -1.03257 2.99175
1.74419 -1.01105 2.99175
1.74419 -1.00387 2.99175
1.74419 -0.99669403 2.99175
1.7453949 -0.98660749 2.9938102
1.74174 -0.91305703 2.9998801
1.73454 -0.90586102 2.9998801
1.71771 -0.89020699 2.99563
1.72735 -0.89866602 2.9998801
1.71288 -0.87704301 2.9997499
1.69602 -0.84702599 2.9953699
1.6876349 -0.83565348 2.9932499
1.69602 -0.83984101 2.9953699
1.77557 -0.430446 2.9962499
1.793605 -0.38734201 2.9963801
1.80439 -0.38734201 2.9963801
1.79975 -1.18678 3.0006199
1.79975 -1.16519 3.0006199
1.79371 -1.155135 3.0025649
1.79748 -1.14674 3.0088699
1.79748 -1.13952 3.0088699
1.76847 -1.1105601 3.00863
1.7562701 -1.10023 3.0001199
1.7562701 -1.09303 3.0001199
1.7562701 -1.08584 3.0001199
1.7562701 -1.07504 3.0001199
1.75876 -1.06576 3.00437
1.75876 -1.0009 3.00437
1.75876 -0.99369401 3.00437
1.76604 -0.99373502 3.0044999
1.75635 -0.98513299 3.0002501
1.76597 -0.98648798 3.00437
1.77325 -0.98652899 3.0044999
1.7490799 -0.97789598 3.0001199
1.75631 -0.97445029 3.0042903
1.767215 -0.97636604 3.0065
1.75148 -0.96482903 3.00425
1.76118 -0.96619397 3.0085001
1.76118 -0.95537001 3.0085001
1.76118 -0.94454598 3.0085001
1.76118 -0.93733001 3.0085001
1.75148 -0.92159402 3.00425
1.72488 -0.88670701 3.0081301
1.70796 -0.86380303 3.0037501
1.70796 -0.84218901 3.0037501
1.70436 -0.83498502 3.0037501
1.71524 -0.83501899 3.00388
1.7031833 -0.82538968 3.0037935
1.7151632 -0.82412964 3.0079565
1.78528 -0.438254 3.0005
1.8965501 -0.431811 3.0057499
1.7757601 -0.41780901 3.00875
1.84101 -0.41066 3.0092499
1.85404 -0.41675001 3.0011301
1.86483 -0.41675001 3.0011301
1.76597 -0.402789 3.00437
1.8312 -0.40287301 3.0050001
1.79748 -0.396175 3.0088699
1.8047 -0.396175 3.0088699
1.8156 -0.39619201 3.0090001
1.82149 -0.39512199 3.00087
1.78773 -0.38840899 3.0046301
1.80725 -1.16281 3.0131199
1.80725 -1.1555901 3.0131199
1.80721 -1.14472 3.0130601
1.81455 -1.1447949 3.0132501
1.79272 -1.13386 3.013
1.80487 -1.13468 3.0151849
1.784245 -1.12451 3.017
1.7733901 -1.10642 3.017
1.7721751 -1.094815 3.01494
1.7951699 -1.07752 3.0171199
1.76359 -1.06146 3.01262
1.76359 -1.05423 3.01262
1.76359 -1.0470001 3.01262
1.76359 -1.036165 3.01262
1.76359 -1.0253299 3.01262
1.7648699 -1.0152299 3.0148149
1.77089 -1.00369 3.0127499
1.77812 -0.99646401 3.0127499
1.77812 -0.98201102 3.0127499
1.76359 -0.93138897 3.01262
1.7563699 -0.91693699 3.01262
1.74542 -0.9060415 3.01244
1.73454 -0.89518499 3.0123799
1.72732 -0.88073403 3.0123799
1.7200201 -0.87347299 3.0122499
1.72245 -0.8638525 3.0165
1.7127301 -0.85537446 3.01213
1.72245 -0.85299897 3.0165
1.7200201 -0.84457302 3.0122499
1.72732 -0.8337695 3.0123799
1.7296799 -0.824058 3.0165
1.72245 -0.81682301 3.0165
1.8898799 -0.46978399 3.0181301
1.90183 -0.461932 3.0141301
1.90906 -0.454703 3.0141301
1.90645 -0.439641 3.01
1.7854199 -0.42560801 3.0128801
1.8534499 -0.419058 3.01775
1.78794 -0.39002499 3.0171199
1.7952501 -0.39727801 3.0172501
1.84361 0.203144 3.0135
1.81959 -1.1842151 3.02163
1.81959 -1.17334 3.02163
1.82215 -1.1641049 3.0258801
1.78564 -1.1167901 3.0255001
1.7954201 -1.1110899 3.0297501
1.784425 -1.10515 3.0234351
1.7929 -1.10228 3.0255001
1.80023 -1.09506 3.02562
1.7977 -1.08628 3.0213699
2.0559299 -1.08144 3.0281301
1.8001601 -1.0732501 3.0255001
2.06319 -1.07418 3.0281301
1.7941949 -1.0631299 3.0276899
1.80276 -1.06753 3.02988
2.0727949 -1.0662601 3.0262499
2.0859399 -1.0655551 3.02425
2.09691 -1.0656 3.02437
2.11447 -1.05987 3.0287499
1.78081 -1.04565 3.0296199
1.78081 -1.03838 3.0296199
1.77706 -1.0253201 3.0232501
1.78815 -1.02389 3.0297501
1.77581 -1.01373 3.0211301
1.78815 -1.01662 3.0297501
1.78313 -1.00652 3.02125
1.7954201 -1.00209 3.0297501
1.7954201 -0.99482 3.0297501
1.78815 -0.980286 3.0297501
1.77581 -0.970249 3.0211301
1.78081 -0.96571201 3.0296199
1.7685699 -0.92677099 3.0211301
1.77105 -0.92081797 3.0253699
1.76125 -0.91224003 3.0209999
1.734555 -0.873537 3.0250001
1.73699 -0.86387098 3.0292499
1.73699 -0.85660499 3.0292499
1.73212 -0.84695601 3.02075
1.73692 -0.82024199 3.02912
1.72966 -0.812976 3.02912
1.88415 -0.47106901 3.0263801
1.9098001 -0.44208801 3.0267501
1.91444 -0.448735 3.02262
1.7977 -0.43405601 3.0213699
1.80276 -0.4243755 3.02988
1.8513401 -0.420221 3.0261199
1.86601 -0.427515 3.0263801
1.89246 -0.42693201 3.0222499
1.78313 -0.41229799 3.02125
1.7929699 -0.41651851 3.025625
1.84149 -0.41238299 3.0218699
1.78564 -0.40562099 3.0255001
1.79549 -0.40620801 3.02988
1.78564 -0.39836401 3.0255001
1.7929699 -0.39838099 3.02562
1.74914 -0.115333 3.02513
1.83667 0.131401 3.0258801
1.83674 0.18946999 3.026
1.84408 0.189478 3.0261199
1.8513401 0.19673701 3.0261199
1.85867 0.211262 3.0262499
1.8371201 -1.16536 3.03863
1.83198 -1.15484 3.0301199
1.82471 -1.1403 3.0301199
1.8332651 -1.144735 3.0322449
1.80774 -1.13607 3.03825
1.82727 -1.13462 3.0343699
1.79794 -1.12721 3.0339999
1.79794 -1.11993 3.0339999
2.05441 -1.09176 3.0366199
2.06178 -1.07724 3.0367501
2.0933051 -1.06204 3.03494
2.10271 -1.06127 3.0327499
2.11007 -1.0613199 3.0328801
2.113795 -1.05409 3.033
1.79317 -1.04498 3.03825
1.79317 -1.03405 3.03825
1.80045 -1.01219 3.03825
1.80045 -0.99032301 3.03825
1.79066 -0.974383 3.0339999
1.79317 -0.96846098 3.03825
1.7833101 -0.95615149 3.03387
1.78581 -0.94656003 3.03813
2.0076499 -0.94465202 3.0320001
2.0148399 -0.94461298 3.0318699
2.0222001 -0.94465202 3.0320001
1.77724 -0.91310704 3.0359402
1.74915 -0.851722 3.03775
1.7467099 -0.84325498 3.0335
1.7467099 -0.83597898 3.0335
1.7467099 -0.82870299 3.0335
1.81256 -0.45044199 3.0341301
1.8151799 -0.443804 3.0385001
1.8151799 -0.43651599 3.0385001
1.8151799 -0.42922801 3.0385001
1.9929399 -0.41373101 3.03175
2.0222001 -0.41376501 3.0320001
1.9929399 -0.377372 3.03175
2.00021 -0.37009999 3.03175
1.74187 -0.123101 3.03775
1.90553 -0.021090999 3.0373149
1.9151599 -0.0210767 3.0352499
1.9041951 -0.0137962 3.0351901
1.91248 -0.0137772 3.0309999
1.91508 -0.0065159998 3.03513
1.9128549 0.0044096885 3.037375
1.85394 0.124328 3.03038
1.84589 0.13656634 3.0330832
1.8565 0.13542199 3.034565
1.85185 0.146543 3.0388801
1.84667 0.182476 3.03038
1.85386 0.18973599 3.0302501
1.8638901 0.204576 3.03475
1.8685499 0.21882699 3.0304999
1.87582 0.226096 3.0304999
1.81034 -1.13041 3.0426199
1.8201801 -1.13199 3.04688
1.81287 -1.12468 3.04688
1.81287 -1.11737 3.04688
1.81034 -1.10852 3.0426199
2.0499101 -1.1041851 3.04075
1.81034 -1.06473 3.0426199
1.80305 -1.05743 3.0426199
2.11164 -1.05847 3.04562
1.80557 -1.03698 3.04688
1.80305 -1.02459 3.0426199
1.79568 -0.96251798 3.0425
1.79088 -0.941939 3.0467501
1.75412 -0.82491302 3.04638
1.73944 -0.81026602 3.0462501
1.74681 -0.81760597 3.04638
2.09987 -0.75267702 3.0497501
2.1050448 -0.75060999 3.0413699
1.86911 -0.47369501 3.0432501
2.03809 -0.41552201 3.0448699
1.98949 -0.401425 3.0487499
1.98949 -0.394113 3.0487499
1.9967999 -0.38679999 3.0487499
2.0189099 -0.372206 3.049
2.0262201 -0.36489201 3.049
1.75897 -0.152465 3.04212
1.76627 -0.152465 3.04212
1.97479 -0.14547899 3.04862
1.9821 -0.14547899 3.04862
1.73694 -0.130564 3.0418701
1.75412 -0.123451 3.04638
1.76634 -0.115986 3.0422499
1.77364 -0.10504051 3.0422499
1.72964 -0.0065304898 3.0418701
1.73936 0.029991901 3.0461199
1.86174 0.117552 3.0431199
1.86911 0.13580501 3.0432501
1.83604 0.19052701 3.0428801
1.87911 0.212754 3.0476301
1.88642 0.220064 3.0476301
1.8449 -1.14103 3.0515001
1.833885 -1.133685 3.051435
1.84755 -1.13533 3.0558801
1.82541 -1.12424 3.055625
1.83281 -1.12796 3.0557499
1.82795 -1.1148 3.05988
2.0585899 -1.11985 3.0536301
1.80808 -1.0530699 3.0511301
2.12503 -1.05419 3.0543699
2.13236 -1.05419 3.0543699
1.80808 -1.04575 3.0511301
1.82061 -1.03407 3.05988
1.81801 -1.02526 3.0555
1.81548 -1.01652 3.05125
1.816745 -1.006235 3.053375
1.82061 -0.99737197 3.05988
1.80808 -0.98720199 3.0511301
1.8132 -0.98265302 3.0597501
1.803315 -0.95561254 3.0554399
1.79337 -0.93593502 3.0510001
1.80586 -0.93128002 3.0597501
1.79337 -0.92495799 3.0510001
1.7651999 -0.82473052 3.0592499
1.7467901 -0.80635297 3.0591199
1.7676749 -0.79484606 3.0571899
1.77628 -0.79908103 3.0593801
2.1058099 -0.76214099 3.0583701
2.1131401 -0.76214099 3.0583701
2.12432 -0.76220298 3.05862
2.0932598 -0.75425053 3.0561249
2.0688801 -0.74004298 3.0580001
2.08073 -0.74637002 3.05387
1.8301899 -0.46032199 3.0513699
1.83026 -0.43106401 3.0515001
2.0585899 -0.42403999 3.0536301
2.05127 -0.41671601 3.0536301
2.0246201 -0.40992799 3.0576301
2.03195 -0.40992799 3.0576301
2.0172 -0.380577 3.0574999
1.7516201 -0.16042501 3.05475
1.865945 -0.16049001 3.056
1.78114 -0.153117 3.05512
1.73938 -0.145974 3.059
1.97014 -0.145675 3.0527501
1.7467901 -0.138642 3.0591199
1.75412 -0.13130499 3.0591199
1.76161 -0.13131499 3.0593801
1.76389 -0.123623 3.0506301
1.77628 -0.123977 3.0593801
1.74918 -0.0138658 3.0504999
1.74186 -0.0065490101 3.0504999
1.75412 -0.0065675201 3.0591199
1.71977 0.00808392 3.0502501
1.72709 0.00076772302 3.0502501
1.72224 0.0154222 3.05463
1.72463 0.0227805 3.0588801
1.76894 0.0227843 3.0593801
1.77628 0.0227843 3.0593801
1.73197 0.0301174 3.0588801
1.84755 0.14003301 3.0558801
1.88173 0.205731 3.0518799
1.8997999 -1.25441 3.0692501
1.9071701 -1.2433701 3.0692501
1.91931 -1.23434 3.06512
1.92399 -1.23263 3.0608699
1.9340899 -1.2233599 3.0652449
1.9416 -1.21244 3.0655
2.002995 -1.175025 3.0638151
2.01546 -1.16851 3.066
2.0200901 -1.16694 3.0618801
1.86277 -1.15488 3.0688801
1.86277 -1.1475199 3.0688801
2.05706 -1.14505 3.0622499
2.06441 -1.13403 3.0622499
1.8353601 -1.12219 3.0599999
1.845335 -1.12746 3.0643749
1.8405401 -1.11799 3.06862
1.83056 -1.105365 3.06425
1.82321 -1.053925 3.06425
2.1458099 -1.05721 3.0631199
1.82321 -1.0429 3.06425
1.8331701 -1.0223 3.06862
1.8331701 -1.01494 3.06862
1.8331701 -1.00758 3.06862
1.81838 -0.97442299 3.0685
1.80836 -0.947272 3.0639999
1.80836 -0.93992299 3.0639999
1.7567101 -0.81488699 3.0636301
1.76405 -0.81488699 3.0636301
1.7751451 -0.81492102 3.06375
2.1710401 -0.81595099 3.0676301
1.76657 -0.80133402 3.0680001
1.7751451 -0.80757201 3.06375
1.78624 -0.80025601 3.06387
2.1605999 -0.800093 3.0632501
1.7935899 -0.792907 3.06387
2.1636801 -0.79387802 3.0676301
2.1679399 -0.78539801 3.0632501
2.11551 -0.77167797 3.0671301
2.1266301 -0.77170998 3.06725
2.1340799 -0.77174097 3.0673699
2.1414299 -0.76438397 3.0673699
2.0525601 -0.72738999 3.0664999
1.84797 -0.47030401 3.0687499
1.91195 -0.462396 3.06512
1.8353601 -0.45428401 3.0599999
1.91195 -0.45504501 3.06512
2.0053201 -0.41048101 3.0617499
2.0127399 -0.41049799 3.0618801
2.02001 -0.41048101 3.0617499
2.0081 -0.40369701 3.066
2.0081 -0.39634299 3.066
2.01266 -0.38845 3.0617499
1.8353601 -0.16070101 3.0599999
1.84541 -0.160937 3.0645001
1.85276 -0.160937 3.0645001
1.86011 -0.160937 3.0645001
1.74921 -0.15353 3.06337
1.76405 -0.153543 3.0636301
1.7935899 -0.15355501 3.06387
1.813405 -0.15367749 3.0663152
1.82321 -0.153574 3.06425
1.775075 -0.146194 3.0636301
1.78624 -0.14620601 3.06387
1.76657 -0.139044 3.0680001
1.7751275 -0.13517624 3.06372
1.78624 -0.116811 3.06387
1.9350801 -0.0249265 3.0610001
1.76657 -0.0139453 3.0680001
1.93875 -0.0139135 3.0610001
1.76405 -0.00657719 3.0636301
1.94152 -0.00658094 3.0653801
1.737 0.0081302999 3.06775
1.745615 0.00077105698 3.0634999
1.7567101 0.00077108899 3.0636301
1.93409 0.0154758 3.0652499
1.73452 0.022814101 3.06337
1.7418 0.0301605 3.0632501
1.87229 0.110877 3.06037
1.88232 0.12573799 3.06475
1.89244 0.148008 3.0692501
1.895785 0.195447 3.0627501
1.8971 0.206607 3.0648701
1.89447 0.213662 3.0606301
1.9461401 -1.2138851 3.0785
2.0109701 -1.17018 3.07037
1.86542 -1.1639 3.0732501
2.0332301 -1.16291 3.0706301
1.87554 -1.15453 3.07775
2.0434999 -1.15719 3.075
2.0613501 -1.15154 3.0796199
1.86542 -1.14179 3.0732501
2.0687301 -1.14416 3.0796199
1.85805 -1.13442 3.0732501
1.84316 -1.11221 3.073
1.84578 -1.10641 3.0773699
1.837095 -1.09456 3.0751848
1.8384 -1.0473599 3.0773699
1.83579 -1.034815 3.073
1.8384 -1.00308 3.0773699
1.83095 -0.99565399 3.07725
1.82357 -0.96613097 3.07725
1.82357 -0.95505953 3.07725
1.8209701 -0.94264603 3.07288
1.83095 -0.936607 3.07725
1.76416 -0.81096601 3.0766301
2.16977 -0.81086701 3.0762501
1.76659 -0.80669904 3.07444
1.91268 -0.744914 3.07812
1.92752 -0.73756099 3.0782499
1.9349101 -0.73017699 3.0782499
2.05388 -0.730474 3.0795
2.0167 -0.72299898 3.0791199
2.0249801 -0.72200102 3.0748799
1.98417 -0.71453899 3.0745001
1.99155 -0.71453899 3.0745001
1.8580151 -0.47466952 3.073185
1.86808 -0.47904599 3.07763
2.05549 -0.411704 3.0708699
2.0629399 -0.41172099 3.0710001
2.0703001 -0.41908699 3.0710001
2.0183301 -0.404273 3.07037
2.01841 -0.39692399 3.0704999
2.0361199 -0.38275501 3.075
2.0434999 -0.37538001 3.075
2.0546451 -0.36433101 3.075125
2.0584199 -0.353282 3.0752499
2.06882 -0.346412 3.0797501
1.76158 -0.153969 3.07212
1.9498301 -0.15428799 3.0785
1.9572999 -0.154294 3.07862
1.96557 -0.154075 3.07425
1.75421 -0.14659999 3.07212
1.76416 -0.146815 3.0766301
1.77154 -0.146815 3.0766301
1.9739 -0.14649899 3.0699999
2.0035999 -0.14651699 3.07037
2.0167799 -0.14693999 3.0792501
1.76158 -0.139231 3.07212
1.79382 -0.135757 3.07687
1.9850299 -0.13914099 3.0701301
1.999 -0.13934501 3.07463
1.79127 -0.124509 3.0725
1.76902 -0.021333599 3.0722499
1.95583 -0.025053799 3.0763149
1.765335 0.0044577401 3.0722499
1.94706 0.00077373203 3.0741301
1.76902 0.0228801 3.0722499
1.79382 0.0229146 3.07687
1.80128 0.022915499 3.0769999
1.80608 0.030252799 3.0726199
1.89038 0.118894 3.0778699
1.83579 0.14818899 3.073
1.84316 0.140818 3.073
1.8951401 0.140847 3.0736301
1.90251 0.17033599 3.0736301
1.85316 0.185306 3.0773699
1.87339 -1.22809 3.08637
1.87339 -1.17628 3.08637
1.88087 -1.16892 3.0864999
2.03444 -1.16783 3.0836301
1.88835 -1.15416 3.0866301
2.05971 -1.15477 3.0882499
1.87813 -1.14504 3.082
1.88835 -1.14676 3.0866301
2.0746901 -1.1400501 3.0885
1.86334 -1.13025 3.082
1.87073 -1.13765 3.082
1.88095 -1.1393501 3.0866301
1.85587 -1.12282 3.0818801
1.85851 -1.11701 3.0862501
1.84363 -1.08735 3.0861199
1.84363 -1.0762501 3.0861199
1.84363 -1.06515 3.0861199
1.84363 -1.05774 3.0861199
2.1431201 -1.05577 3.0803699
2.1542449 -1.055795 3.0804348
1.85111 -1.04298 3.0862501
1.85111 -1.03558 3.0862501
1.85111 -1.024475 3.0862501
1.85111 -1.01337 3.0862501
1.8361501 -0.99108398 3.086
2.0940299 -0.97572601 3.08425
1.83355 -0.94533002 3.08162
1.84102 -0.937976 3.0817499
1.8063999 -0.80597001 3.0857501
2.1865201 -0.78471798 3.0895
2.0494001 -0.731511 3.0838699
1.98524 -0.71758902 3.08763
1.8744299 -0.47233501 3.082
2.0866301 -0.42089501 3.08425
2.0790701 -0.41346401 3.0840001
2.08951 -0.414067 3.0885
2.0716701 -0.40606701 3.0840001
2.0820999 -0.40665901 3.0885
2.05971 -0.37699699 3.0882499
2.06427 -0.36908099 3.0840001
2.0746901 -0.362212 3.0885
2.0716701 -0.354287 3.0840001
1.8112299 -0.154432 3.0813701
1.89575 -0.154695 3.0866301
1.90323 -0.15470199 3.08675
1.91064 -0.15470199 3.08675
1.94419 -0.15471999 3.0871301
2.0269599 -0.14714301 3.0834999
2.03444 -0.147149 3.0836301
2.0420001 -0.14716101 3.0838699
2.0121701 -0.13974699 3.0834999
2.0225101 -0.13995101 3.0880001
1.8063999 -0.102842 3.0857501
1.8063999 -0.095440798 3.0857501
1.79637 -0.087911099 3.08125
1.77406 -0.028784299 3.0810001
1.75423 0.0081763398 3.08512
1.76178 0.0081770103 3.0853801
1.77658 0.0081770103 3.0853801
1.78405 0.0044769677 3.0855
1.79152 0.0081776697 3.0856199
1.74436 0.0155541 3.08075
1.75423 0.0155762 3.08512
1.764225 0.0155664 3.08319
1.77406 0.0155554 3.0810001
1.78159 0.0155566 3.08125
1.7951851 0.0155784 3.0855598
1.7554801 0.022943951 3.0808101
1.7666 0.0229444 3.0808699
1.94789 0.022990899 3.0871301
1.8187701 0.0303414 3.08162
1.94049 0.030395599 3.0871301
1.8361501 0.045188401 3.086
1.90054 0.133854 3.0823801
1.91064 0.14885201 3.08675
1.91064 0.15625501 3.08675
1.90793 0.163427 3.0823801
1.85111 0.17843799 3.0862501
1.8659101 0.17843799 3.0862501
1.91812 0.17847399 3.08687
1.9154 0.185615 3.0825
1.9154 0.19300801 3.0825
1.8862799 -1.2613699 3.0953801
1.8961101 -1.26793 3.093255
1.90593 -1.26706 3.09113
1.88894 -1.25572 3.09975
1.87612 -1.22247 3.0908699
1.87612 -1.21506 3.0908699
1.87612 -1.203935 3.0908699
1.8862799 -1.20569 3.0953801
1.87612 -1.19282 3.0908699
1.88894 -1.1962399 3.09975
1.87612 -1.1854 3.0908699
1.88894 -1.1850901 3.09975
1.89103 -1.16321 3.0910001
2.045445 -1.164595 3.0946851
1.8787 -1.13507 3.09512
1.87128 -1.12393 3.09512
1.86114 -1.1111799 3.0906301
1.85373 -1.10376 3.0906301
1.8563499 -1.0979 3.095
1.85905 -1.0772001 3.0994999
1.8563499 -1.0645 3.095
2.14483 -1.06027 3.0934999
1.85373 -1.05187 3.0906301
2.15605 -1.0528899 3.0936301
2.10748 -1.00079 3.0931301
1.84624 -0.999942 3.0905001
1.8414299 -0.97166401 3.0948801
1.8414299 -0.96424103 3.0948801
1.8414299 -0.95681798 3.0948801
1.85373 -0.93326497 3.0906301
1.85373 -0.925852 3.0906301
1.84624 -0.91098899 3.0905001
1.85504 -0.91537654 3.0928149
2.18962 -0.83035398 3.0938699
1.81644 -0.79973298 3.09025
1.82386 -0.79232103 3.09025
1.8365999 -0.78719503 3.0992501
2.11797 -0.78678203 3.09763
1.84411 -0.77979201 3.09938
1.85162 -0.77238899 3.0994999
2.1672699 -0.76353598 3.09375
1.9049151 -0.75654298 3.0955
2.08057 -0.40038201 3.09725
2.0880899 -0.36325201 3.0973699
2.0880899 -0.35582301 3.0973699
2.0850501 -0.34788799 3.09288
2.0924699 -0.340469 3.09288
1.924585 -0.15493 3.0913148
1.93574 -0.15493301 3.0913799
2.0327899 -0.140149 3.09238
2.0402901 -0.140155 3.0925
2.054405 -0.14407301 3.0969999
1.97306 -0.025176901 3.0917499
1.9656399 -0.0140533 3.0917499
1.78918 -0.0066431998 3.0943699
1.96842 -0.00664696 3.0961201
1.7966 0.00077882799 3.0943699
1.961 0.0082055004 3.0961201
1.81902 0.023046801 3.09462
1.94607 0.037908901 3.096
1.95349 0.030482899 3.096
1.85905 0.075123303 3.0994999
1.86649 0.082557701 3.0994999
1.874 0.082561001 3.0996301
1.9012001 0.11215 3.0955
1.90863 0.12699901 3.0955
1.9162101 0.134435 3.0957501
1.85366 0.149033 3.0905001
