# .PCD v0.7 - Point Cloud Data file format
VERSION 0.7
FIELDS x y z
SIZE 4 4 4
TYPE F F F
COUNT 1 1 1
WIDTH 1589
HEIGHT 1
VIEWPOINT 0 0 0 0 1 0 0
POINTS 1589
DATA ascii
0.98487997 0.57902282 1.8940001
0.99389911 0.57902282 1.8940001
-0.34813529 0.60427618 1.8940001
0.97676289 0.60517812 1.8940001
0.65478295 0.66560572 1.8940001
0.66740954 0.66199809 1.8940001
0.67282099 0.66199809 1.8940001
0.68003619 0.66199809 1.8940001
0.69807428 0.66560572 1.8940001
0.7143085 0.67282099 1.8940001
0.54702222 -0.084017776 1.9039999
0.82506669 -0.059840001 1.904
0.83594662 -0.059840005 1.9039999
-0.3572267 -0.0272 1.904
-0.3536 -0.016319999 1.904
-0.37354666 0.047146663 1.904
-0.37173331 0.054400001 1.904
0.61834669 0.1432533 1.904
0.62197328 0.1432533 1.904
0.61834669 0.15413333 1.9039999
0.62378663 0.15775999 1.904
1.01728 0.3137067 1.904
1.020907 0.3137067 1.904
1.0553601 0.41887999 1.904
0.98645341 0.58752 1.904
0.9937067 0.58570671 1.904
1.0064 0.58570671 1.904
1.0136534 0.58812445 1.9039999
1.0245334 0.5893333 1.9039999
0.98464012 0.59477335 1.904
1.0547557 0.5953778 1.9039999
1.0608 0.59477335 1.904
1.0662401 0.60021329 1.904
0.68362671 0.66186672 1.904
0.91754663 0.69813329 1.904
0.92298669 0.69813329 1.904
-1.0553601 0.73258662 1.904
0.82618582 -0.063833334 1.915
0.83348101 -0.060185719 1.915
0.84442389 -0.062009528 1.915
-0.35381907 -0.041947622 1.915
-0.3483476 -0.041947622 1.915
-0.3720572 -0.032828569 1.915
-0.36439714 -0.033922859 1.915
-0.35564291 -0.034652382 1.9150001
-0.37023339 -0.023709521 1.915
-0.3452211 -0.022667345 1.915
0.5708524 -0.0091190478 1.915
0.77876669 -0.0054714289 1.915
-0.34652379 0.0054714293 1.915
-0.34591588 0.013982545 1.915
0.61827141 0.054714292 1.915
0.62191898 0.054714292 1.915
0.61827141 0.060185719 1.915
0.62191898 0.060185719 1.915
0.62374282 0.14772861 1.915
0.61827141 0.1532 1.915
0.3811762 0.17690951 1.915
-1.043219 0.1842048 1.915
-0.35442701 0.23283966 1.915
0.61097622 0.2334476 1.915
1.0730079 0.31673494 1.915
1.0341001 0.32281429 1.915
1.054162 0.42494759 1.915
0.99397618 0.59456193 1.915
0.99154454 0.60368097 1.915
1.0724 0.60732859 1.915
0.69395959 0.66842628 1.915
0.70399046 0.66933823 1.915
0.99519205 0.66447467 1.915
1.001271 0.66933823 1.915
0.69851911 0.67298567 1.915
0.70216668 0.67298567 1.915
0.46507141 0.70946193 1.915
-1.0632811 0.73499531 1.915
0.58361906 0.73864287 1.915
0.83416671 -0.065388896 1.9249998
0.84516668 -0.064166673 1.925
1.045611 -0.064166673 1.9249998
1.0534334 -0.061966669 1.925
1.0651666 -0.0605 1.9249998
1.057833 -0.056833331 1.925
1.0651666 -0.056833331 1.9249998
-0.34650001 -0.042166669 1.925
-0.35016671 -0.034833334 1.9249998
-0.34527779 -0.036055554 1.9249998
-0.3391667 -0.034833331 1.925
-0.3758333 -0.0275 1.925
-0.34466666 -0.0275 1.925
-1.056 0.066000007 1.925
-1.046833 0.067833342 1.925
-1.0505 0.071500003 1.925
-1.0450001 0.071500003 1.925
-0.35566664 0.2475 1.925
-0.35383332 0.28416669 1.9249998
0.98083341 0.30250001 1.925
-0.35749999 0.32449999 1.925
1.0376666 0.3208333 1.925
-0.35749999 0.3318333 1.925
1.0156665 0.42533335 1.925
1.0761667 0.62700003 1.9250001
1.0761666 0.63616669 1.9250001
1.0761666 0.64533329 1.9250001
0.99550009 0.65694445 1.9249998
1.0761666 0.65449989 1.9250001
0.68383336 0.66916668 1.925
0.69849998 0.66916668 1.925
0.99550003 0.66183329 1.925
0.4675 0.71683341 1.925
0.58575004 0.73791677 1.925
-1.054659 -0.2194134 1.936
-1.04544 -0.2194134 1.936
1.073097 -0.066377148 1.936
1.041752 -0.057158101 1.936
-0.37798101 -0.03134476 1.936
-0.3447924 -0.036261588 1.936
-0.37798101 -0.022125721 1.936
0.35401145 0.18438101 1.936
0.61337405 0.28456131 1.936
0.62689525 0.2857905 1.936
0.61398858 0.29316571 1.936
0.98275048 0.30791619 1.936
0.87949717 0.33372951 1.936
0.8850286 0.33557332 1.936
0.89609146 0.33372951 1.936
0.90162289 0.33372951 1.936
-0.3576991 0.4296076 1.936
0.5992381 0.42776382 1.936
0.60292572 0.4240762 1.936
1.0257727 0.42469081 1.936
1.0638784 0.42592001 1.936
-0.3576991 0.4369829 1.936
0.59739429 0.43513906 1.936
0.60292572 0.43329519 1.936
-0.3576991 0.48676574 1.936
-0.3632305 0.49414098 1.936
-0.35954291 0.49414098 1.936
-1.0712529 0.57711238 1.936
-0.41485718 0.61767632 1.936
1.065722 0.66930288 1.936
-1.066956 -0.41498914 1.9470001
-1.0569429 -0.4135057 1.947
-1.073632 -0.40608859 1.947
-1.0668324 -0.40485239 1.9470001
-1.073632 -0.39867151 1.947
-1.066214 -0.39867151 1.947
-1.0662142 -0.2225143 1.947
-1.073632 -0.21509716 1.947
1.081049 -0.072317153 1.947
-0.38383719 0.02781429 1.947
-0.38383719 0.031522859 1.947
-0.38383719 0.083442859 1.947
0.1947 0.17615713 1.947
0.20768 0.1780114 1.947
0.90303719 0.22066 1.947
-1.073632 0.2392029 1.947
1.0921741 0.29483148 1.947
1.0921741 0.30595717 1.947
1.0346916 0.31708291 1.947
0.8844943 0.3319172 1.947
1.073632 0.42463139 1.947
0.59708005 0.4468829 1.947
-1.073632 0.58039153 1.947
-0.33933431 0.58224583 1.947
-1.0758568 0.6241526 1.9470001
-0.40608859 0.62118578 1.947
-1.07734 0.65085429 1.947
-1.081049 0.74356872 1.947
-1.075968 -0.62096572 1.9579999
-1.0759677 -0.61474985 1.9579998
-1.068509 -0.61350667 1.9579999
-1.0759677 -0.60604775 1.9579999
-1.068509 -0.60791242 1.9579999
-1.079697 -0.59858859 1.9579999
-1.0767136 -0.42479283 1.9579999
-1.068509 -0.42330101 1.9579999
-1.056077 -0.41832826 1.9579998
-1.072238 -0.13612759 1.9579998
-1.0675765 -0.13705999 1.9579999
0.46432567 -0.095102847 1.9579998
1.0774596 -0.083168373 1.9579999
1.0856644 -0.08316838 1.9579999
1.0871561 -0.076455243 1.9579999
-1.068509 -0.016782859 1.9579999
-1.0759677 -0.0055942857 1.9580001
0.61350667 0.001864762 1.9579999
0.12866861 0.1771524 1.9579999
0.16596381 0.17528765 1.9580001
0.19580001 0.17528765 1.9579999
0.2853086 0.1808819 1.9579999
0.29276761 0.1808819 1.9579999
0.30022669 0.1846114 1.9579999
-0.38973531 0.22936571 1.9579999
-1.0759677 0.23495997 1.9580001
-1.0755014 0.24474998 1.9580001
-1.0647794 0.25547242 1.9579999
-0.9777568 0.25671557 1.9579998
-0.35616955 0.26479617 1.9580001
1.0672656 0.27660632 1.9579998
1.0759677 0.27598473 1.9580001
1.083427 0.28157911 1.9579999
-0.39346471 0.31514481 1.9579998
-0.39346471 0.32446855 1.9579999
0.79438859 0.32260379 1.9579999
0.97527051 0.32446855 1.9579999
-0.39346471 0.33379242 1.9579998
0.5451321 0.33627877 1.9579998
0.55234253 0.3330465 1.9579999
0.9566229 0.3300629 1.9579999
0.96408194 0.3300629 1.9579998
0.97154099 0.3300629 1.9579999
0.55756378 0.34125149 1.9579999
-1.0647795 0.3729524 1.9579999
-1.074103 0.38600576 1.9579999
-0.39346471 0.40838289 1.9579999
1.0852915 0.4195714 1.9579999
1.034943 0.4270305 1.9579999
1.0852915 0.42516577 1.9579999
-1.0759676 0.4605962 1.9579999
-1.0778325 0.57807624 1.9579999
-1.068509 0.62655997 1.9579999
-0.42516577 0.62842482 1.9579999
-0.41584191 0.62842482 1.9579998
-0.40465331 0.62842482 1.9579998
-1.079697 0.63588387 1.9579998
-1.079697 0.64334291 1.9579999
-0.71171743 0.6458292 1.9579998
-0.70674479 0.64520764 1.9579999
-0.69555622 0.6452077 1.9580001
-0.68436766 0.64520758 1.9580001
-1.0778325 0.65453142 1.9579999
-0.67504382 0.65080202 1.9579999
-0.66571999 0.65080202 1.9579998
-0.65204513 0.65204519 1.9579998
-0.64520764 0.65266669 1.9579999
-1.072238 0.66199052 1.9579999
-1.066644 0.66385525 1.9579999
-0.97527051 0.66199052 1.9579999
-1.0645103 -0.78322452 1.969
-1.0820121 -0.77072293 1.969
-1.0745116 -0.77697372 1.969
-1.067011 -0.77822387 1.969
0.45568287 -0.091886669 1.969
0.44630665 -0.088136204 1.969
0.45568287 -0.088136204 1.969
1.078262 -0.080635242 1.969
0.17627235 0.17627235 1.969
0.18564858 0.17627235 1.969
0.26815909 0.1818981 1.969
-1.0557593 0.26190826 1.969
-1.0445076 0.26065809 1.969
-0.9732486 0.26065809 1.969
1.0657606 0.27440986 1.969
1.0445076 0.3094143 1.969
1.0454452 0.31410241 1.969
0.79510105 0.32066569 1.969
0.80447721 0.32441619 1.969
0.89636385 0.32816669 1.969
0.96574765 0.32816669 1.969
0.97512376 0.32629144 1.969
0.53819329 0.33754286 1.969
0.84760761 0.3319172 1.969
0.88698763 0.3319172 1.969
0.95449632 0.3319172 1.969
0.53819329 0.34316859 1.969
-0.3919248 0.3731724 1.969
-1.078262 0.38067329 1.969
1.095139 0.41442764 1.969
1.037007 0.42942959 1.969
-1.0070029 0.45943329 1.969
-1.0857625 0.46505904 1.969
-0.39567521 0.4894371 1.969
-0.61507815 0.56069618 1.969
-0.60570198 0.56069618 1.969
-0.34504384 0.57944858 1.969
-0.41442764 0.63570571 1.969
-0.40505144 0.63570571 1.969
-0.56444669 0.64695722 1.969
-0.55507052 0.64695722 1.969
-0.54475665 0.64601958 1.969
-0.53519291 0.6447069 1.9690001
-0.61507815 0.65070772 1.969
-0.57194757 0.65070772 1.969
-0.56819719 0.65070772 1.969
-1.093264 0.74446958 1.969
-1.065429 -0.79388571 1.98
-1.0673145 -0.78257149 1.98
-1.0842856 -0.77502865 1.98
-1.0748575 -0.77880007 1.98
-1.0918289 -0.76560003 1.98
1.027714 -0.066 1.98
0.52611428 -0.0056571425 1.98
-0.98622859 0.058457151 1.98
-1.020172 0.1716 1.98
-1.0164 0.1716 1.98
0.22817139 0.1866857 1.98
0.2470286 0.1866857 1.98
0.264 0.1829143 1.98
1.067943 0.28222856 1.98
1.0729721 0.28474286 1.98
1.0729721 0.30737141 1.98
1.057886 0.31491429 1.98
1.0654286 0.31365713 1.98
0.95982862 0.32622859 1.98
0.96611434 0.32497147 1.98
0.97491437 0.32622859 1.98
0.89571428 0.33000001 1.98
0.9579429 0.33000001 1.98
0.9636001 0.33000001 1.98
-1.088057 0.38657141 1.98
1.106914 0.40920001 1.98
1.0956002 0.41297141 1.98
1.044057 0.42680001 1.98
-1.035257 0.45822859 1.98
-1.088057 0.46954289 1.98
0.48085719 0.47331429 1.98
0.48274291 0.48085719 1.98
-0.58645719 0.56382859 1.98
-1.0956 0.57891428 1.98
-0.34697145 0.57891428 1.98
-1.0918289 0.58268583 1.98
-0.40165719 0.63925719 1.98
-0.40542856 0.64302862 1.98
-0.53491426 0.65308577 1.98
-0.52611434 0.65245724 1.98
-0.51480001 0.65434289 1.98
-0.50725722 0.65057153 1.98
-1.068092 -0.80249143 1.992
-1.0718859 -0.79110861 1.992
-1.0655621 -0.79427052 1.992
-1.0668269 -0.7860496 1.992
-1.097181 -0.7645486 1.992
-1.098446 -0.75695997 1.992
-1.092754 -0.63933712 1.992
-1.085166 -0.3282057 1.992
-1.07568 -0.3282057 1.992
-1.0250893 -0.13216765 1.992
-1.024457 -0.1271086 1.992
1.060503 -0.09296 1.992
1.0329945 -0.073040001 1.992
-0.93149722 -0.032251429 1.992
0.38322291 -0.017074291 1.992
-1.005486 0.1688457 1.992
-0.99600011 0.1688457 1.992
-1.0149713 0.25421715 1.992
1.083269 0.29595429 1.992
1.07568 0.30923429 1.992
1.083269 0.30354285 1.992
0.51222867 0.33199999 1.992
-1.096928 0.38436121 1.992
1.1098289 0.4078857 1.992
1.0453256 0.41926861 1.992
1.1060343 0.41168001 1.992
1.044377 0.42496002 1.992
1.0434284 0.43065149 1.992
-1.0946515 0.47618288 1.992
0.62036568 0.51033151 1.992
-0.40029711 0.5349943 1.992
-0.58432007 0.56345153 1.992
-0.57483429 0.56345153 1.992
-0.62036568 0.57103997 1.992
-0.34717709 0.57673144 1.992
-0.40029711 0.64692569 1.992
-0.39460576 0.64502853 1.992
-0.50463998 0.65830863 1.992
-0.49515429 0.65324956 1.992
-0.48471999 0.65356576 1.992
-0.47523433 0.65356576 1.992
-0.46859431 0.65261722 1.992
-0.4420343 0.66210288 1.992
-0.43823999 0.66210288 1.992
0.61429489 0.73343551 1.992
0.6222629 0.73040003 1.992
0.60708576 0.74368012 1.992
-1.062544 -0.79547721 2.003
-1.104511 -0.75541717 2.003
-1.104511 -0.74587911 2.003
-1.0828916 -0.64413935 2.003
-1.096881 -0.33192569 2.003
1.062544 -0.093473338 2.003
1.039652 -0.082027607 2.003
1.0453756 -0.085842863 2.003
1.051098 -0.089658096 2.003
1.0335481 -0.07516019 2.003
-1.0034075 -0.03242952 2.003
-0.99386948 -0.036244761 2.003
-0.98496729 0.16850637 2.003
-0.97860861 0.16977809 2.003
-0.9652552 0.16977809 2.003
-0.97288573 0.1735933 2.003
0.0095380954 0.17740861 2.003
0.01526095 0.17550096 2.003
0.65812862 0.23463714 2.003
0.66575903 0.23272948 2.003
0.67491567 0.23540017 2.003
0.68102002 0.23654476 2.003
0.67593306 0.24353933 2.003
0.68102002 0.24608284 2.003
0.88513523 0.2994962 2.003
0.89085811 0.29186571 2.003
0.88449937 0.30458316 2.003
0.87941241 0.31284952 2.003
0.8847537 0.3155202 2.003
0.50742662 0.32620281 2.003
1.115957 0.4101381 2.003
1.0561854 0.42412725 2.003
-0.75350952 0.4482905 2.003
-0.74683291 0.44542903 2.003
-0.73061812 0.44447523 2.003
-0.72489524 0.44447523 2.003
-0.71535712 0.44256759 2.003
-1.051098 0.4673667 2.003
-1.0453756 0.4673667 2.003
-1.100696 0.4788124 2.003
-1.1019677 0.48517111 2.003
-1.1026034 0.4902581 2.003
0.49598095 0.51505709 2.003
0.49693477 0.52554905 2.003
-0.3719857 0.5398562 2.003
0.62379152 0.55320948 2.003
-0.62760657 0.56656277 2.003
-0.35418129 0.57164985 2.003
-0.34527901 0.57482922 2.003
-0.4330295 0.65812862 2.003
-0.1335333 0.65812862 2.003
-0.43493715 0.66385138 2.003
-0.12494904 0.66480523 2.003
0.54557908 0.6867429 2.003
0.60662287 0.73443341 2.003
-1.1060113 -0.74395084 2.0150001
-1.111129 -0.53733337 2.0150001
-1.107291 -0.53733337 2.0150001
1.065071 -0.094033338 2.0150001
1.038205 -0.082519047 2.0150001
1.043962 -0.0844381 2.0150001
0.23604292 -0.072923809 2.0150001
0.46632859 -0.074842855 2.0150001
0.47208574 -0.074842848 2.0150001
-0.93457621 0.1669572 2.0150001
0.0844381 0.17655234 2.0150001
0.0031984129 0.18614759 2.0150001
0.26482856 0.18230949 2.0150001
0.27058569 0.18230949 2.0150001
0.28209999 0.18230949 2.0150001
0.924981 0.19574285 2.0150001
-0.89619529 0.25139529 2.0150001
0.7324366 0.30768734 2.0150001
0.74459052 0.31664291 2.0150001
0.50726837 0.32303965 2.0150001
-0.924981 0.36269999 2.0150001
1.1239223 0.40747786 2.0150001
1.061233 0.42027149 2.0150001
-1.055476 0.47400481 2.0150001
-1.043962 0.47400481 2.0150001
0.57763332 0.48360005 2.0150001
0.57763332 0.50662863 2.0150001
0.50547719 0.53541434 2.0150001
0.51430476 0.53733337 2.0150001
-0.37421429 0.54692858 2.0150001
-0.93457621 0.55844289 2.0150001
-0.40875721 0.55460483 2.0150001
-0.99982393 0.56228101 2.0150001
-0.98639059 0.56228101 2.0150001
-0.97295719 0.56611907 2.0150001
-0.96528101 0.56611907 2.0150001
-0.94992858 0.56228101 2.0150001
-0.93841428 0.56228101 2.0150001
-0.58339047 0.56611907 2.0150001
-0.57571435 0.56611907 2.0150001
-0.35502383 0.56739843 2.0150001
-0.34542859 0.56995708 2.0150001
0.62752861 0.56228101 2.0150001
-0.34542859 0.57379532 2.0150001
-0.1285762 0.65631425 2.0150001
0.52773809 0.68893808 2.0150001
0.53349525 0.68893808 2.0150001
0.52581906 0.69469523 2.0150001
-1.114967 0.72731912 2.0150001
-1.0733445 -0.80307817 2.027
-1.067554 -0.80500859 2.027
-1.110024 -0.74323338 2.027
-1.106163 -0.74516392 2.027
-1.106163 -0.7374419 2.027
1.055971 -0.090732388 2.027
1.0945801 -0.093306355 2.027
1.0443881 -0.084940962 2.027
-0.83589631 0.1525076 2.027
0.27798861 0.1795343 2.027
0.92662865 0.1795343 2.027
0.25482291 0.1833953 2.027
0.26061431 0.1833953 2.027
0.92662865 0.18532574 2.027
-0.001930476 0.19497812 2.027
0.50578475 0.31852859 2.027
0.74709439 0.31466761 2.027
0.50578475 0.32238951 2.027
-0.94400293 0.36485997 2.027
-0.93628103 0.36486 2.027
-0.92083722 0.36099911 2.027
-0.91697627 0.36099911 2.027
1.1235375 0.40733051 2.027
1.067554 0.41891339 2.027
1.125468 0.41119149 2.027
-0.81273061 0.45366189 2.027
-0.80500859 0.45366189 2.027
-0.79535627 0.45366189 2.027
-1.055971 0.47682771 2.027
0.51543713 0.54439425 2.027
-0.37644291 0.55404681 2.027
-1.0154305 0.5656296 2.027
-0.98389935 0.56691658 2.027
-0.97489047 0.56949049 2.027
-0.96330768 0.5656296 2.027
-0.95558578 0.56369913 2.027
-0.42470479 0.5656296 2.027
-0.41891339 0.5656296 2.027
-0.36486006 0.56434262 2.027
-0.35520765 0.56756008 2.027
-0.12548093 0.65443152 2.027
0.50385427 0.73165047 2.027
-1.077757 -0.80394852 2.039
-1.114653 -0.73598188 2.039
-1.1088279 -0.73986572 2.039
1.058338 -0.091269523 2.039
1.093292 -0.099037141 2.039
1.104944 -0.095153332 2.039
1.114653 -0.099037141 2.039
0.33853868 -0.084796518 2.039
0.34371719 -0.087385722 2.039
1.046687 -0.087385722 2.039
1.05057 -0.087385722 2.039
0.36507809 -0.071850479 2.039
0.3747876 -0.073792383 2.039
0.39517763 -0.066995718 2.039
0.40197429 -0.066024765 2.039
-0.89910191 0.1572943 2.039
-0.90492761 0.1611781 2.039
-0.89618903 0.16409096 2.039
0.2951695 0.1767133 2.039
0.91075331 0.17282949 2.039
-0.001941905 0.2194352 2.039
0.001941905 0.2194352 2.039
-0.0058257142 0.22331899 2.039
-0.0058257142 0.23497051 2.039
-0.8175419 0.24662191 2.039
-0.83696097 0.25244761 2.039
-0.0067966664 0.25341856 2.039
-0.0058257147 0.26604095 2.039
0.61558384 0.3165305 2.039
0.74763328 0.31264669 2.039
0.81365812 0.3165305 2.039
-1.122421 0.32818189 2.039
0.96512669 0.32429811 2.039
-1.116595 0.35536861 2.039
-0.90492761 0.35731053 2.039
-0.88745052 0.35925239 2.039
-0.94959152 0.3631362 2.039
-0.93017238 0.3631362 2.039
-0.89327621 0.3631362 2.039
-0.01359333 0.37672949 2.039
-0.01359333 0.38255519 2.039
-0.0097095231 0.38643911 2.039
0.50683713 0.42916101 2.039
1.077757 0.42139331 2.039
1.081641 0.42139331 2.039
-0.01359333 0.4369286 2.039
0.50489527 0.43498671 2.039
-0.79035521 0.44469619 2.039
-0.01359333 0.4427543 2.039
0.58451343 0.46605715 2.039
-0.01359333 0.47770858 2.039
0.58451343 0.47576669 2.039
-1.054454 0.48353431 2.039
0.58839709 0.5262562 2.039
-0.0077676186 0.5476172 2.039
0.50683713 0.54955912 2.039
-0.3747876 0.55732667 2.039
-0.0077676186 0.55538476 2.039
-1.1256577 0.56379968 2.039
-1.0175581 0.56509429 2.039
-0.42333519 0.56509429 2.039
-0.4175095 0.56315243 2.039
-0.37284571 0.56121051 2.039
-0.36507809 0.56509429 2.039
-0.35459185 0.56664777 2.039
-0.0097095231 0.56703615 2.039
0.51848859 0.66218948 2.039
-1.123392 0.72724336 2.039
-1.1243631 0.7320981 2.039
0.50683713 0.7320981 2.039
-1.080193 -0.81063342 2.0510001
-1.112749 -0.74422002 2.0510001
-1.0821465 -0.34183341 2.0510001
-0.9268567 -0.22561003 2.0510001
1.13098 -0.1035267 2.0510001
0.1152467 -0.091806673 2.0510001
1.1348866 -0.099620007 2.0510001
0.32620671 -0.083993338 2.0510001
0.33402005 -0.085946679 2.0510001
1.0469865 -0.083993345 2.0510001
0.33402002 -0.015626665 2.0510004
0.33402002 -0.0078133335 2.0510004
-0.92001998 0.062506668 2.0510001
-0.91416001 0.062506668 2.0510001
-0.87313998 0.15626664 2.0510001
0.90048671 0.1758 2.0510001
0.2480734 0.18556669 2.0510001
-0.0097666671 0.27542001 2.0510001
-0.0097666671 0.28518665 2.0510001
-0.01367333 0.29886001 2.0510001
-0.0097666671 0.29299998 2.0510001
-0.01367333 0.30471998 2.0510001
0.51763332 0.30667329 2.0510001
0.51502889 0.31709111 2.0510001
0.61432332 0.31351003 2.0510001
-0.89267337 0.35745999 2.0510001
-0.88583666 0.35648337 2.0510001
-0.87444228 0.35615778 2.0510001
-0.86610806 0.35511607 2.0510001
-0.95517999 0.3626689 2.0510001
-0.94541335 0.36527339 2.0510001
-0.88486004 0.36136666 2.0510001
-0.87444228 0.3626689 2.0510001
1.1348866 0.40824667 2.0510001
1.0833185 0.41762266 2.0510001
1.0948433 0.41703668 2.0510001
1.1049353 0.41736221 2.0510001
1.1153535 0.41410667 2.0510001
1.123167 0.4121533 2.0510001
0.51633114 0.43559337 2.0510001
0.59186012 0.47466001 2.0510001
0.59186012 0.48442668 2.0510001
-1.0489399 0.49028671 2.0510001
0.59576672 0.49224001 2.0510001
-1.123167 0.55474675 2.0510001
-0.42582667 0.56451333 2.0510001
-0.4199667 0.56060672 2.0510001
-0.37308669 0.56060672 2.0510001
-0.36722669 0.56451333 2.0510001
-0.0058599999 0.58600003 2.0510001
-0.0019533329 0.59576672 2.0510001
0.0019533329 0.59772003 2.0510001
-0.0039066663 0.60358 2.0510001
-0.13673335 0.65827328 2.0510001
-0.01367333 0.65827328 2.0510001
-0.0097666671 0.65827328 2.0510001
0.50747603 0.65358531 2.0510001
-0.0097666671 0.66413343 2.0510001
-0.01367333 0.67390001 2.0510001
-0.54497999 0.68171328 2.0510001
-0.52349335 0.68366671 2.0510001
0.52935338 0.71491998 2.0510001
-1.1329335 0.72664005 2.0510001
0.50981998 0.72859341 2.0510001
0.51568002 0.72859341 2.0510001
0.52153999 0.72859341 2.0510001
0.54888672 0.72664005 2.0510001
0.55279338 0.72664005 2.0510001
0.51568002 0.73250008 2.0510001
0.52153999 0.73445338 2.0510001
-1.082584 -0.81341153 2.063
-1.1238439 -0.74071532 2.063
-1.11664 -0.74333501 2.063
-1.0334649 -0.62479436 2.063
0.26720765 -0.1002029 2.063
0.2731019 -0.1002029 2.063
0.1827229 -0.096273348 2.063
0.19254665 -0.096273348 2.063
0.26720765 -0.094308577 2.063
0.2750667 -0.096273348 2.063
0.28096101 -0.096273348 2.063
0.26131329 -0.088414289 2.063
1.047218 -0.088414289 2.063
1.0511481 -0.088414289 2.063
-0.91361439 -0.029471431 2.063
0.30060861 0.16700479 2.063
0.24480936 0.1842947 2.063
-0.90575528 0.25738379 2.063
-0.80358768 0.2534543 2.063
0.5324505 0.3045381 2.063
0.52066201 0.31436196 2.063
0.75446868 0.31239721 2.063
0.96666294 0.31632671 2.063
0.94701529 0.3241857 2.063
0.96705592 0.32418576 2.063
0.97452199 0.3241857 2.063
0.96666294 0.33204481 2.063
-0.83895338 0.35955149 2.063
-0.38312861 0.37919909 2.063
1.0943724 0.41456476 2.063
1.1041965 0.41456479 2.063
1.11402 0.41456476 2.063
1.1258086 0.4119451 2.063
1.1336679 0.41063529 2.063
0.52459145 0.43421236 2.063
0.5344153 0.43421239 2.063
0.59925252 0.48529625 2.063
0.60318202 0.49512005 2.063
0.59925252 0.5029791 2.063
0.50494379 0.55995721 2.063
-0.42635339 0.5638867 2.063
-0.37134001 0.5638867 2.063
0.53507024 0.67522329 2.063
-0.0098238103 0.69749051 2.063
-1.1336679 0.72499722 2.063
-1.0834739 -0.82249153 2.076
-1.085451 -0.81458288 2.076
-1.1348801 -0.74142861 2.076
-1.128949 -0.74142861 2.076
0.26691431 -0.096880011 2.076
-0.84028578 0.1482857 2.076
-0.83633149 0.1482857 2.076
-0.84292203 0.15355809 2.076
-0.71638483 0.1548762 2.076
-0.84424013 0.16014861 2.076
0.76317728 0.31041151 2.076
0.95298302 0.31634286 2.076
0.96484578 0.31634286 2.076
0.96418667 0.32359239 2.076
0.9747315 0.32425144 2.076
0.98461723 0.3222743 2.076
0.96286857 0.33018291 2.076
-0.96286857 0.36577141 2.076
-0.9589144 0.36577141 2.076
-0.84028578 0.36181721 2.076
-0.82446867 0.36577141 2.076
-0.36181721 0.3697257 2.076
-0.3855429 0.37368 2.076
-0.38158861 0.3855429 2.076
-0.37565714 0.3855429 2.076
-0.36577144 0.38752005 2.076
-0.35628119 0.38475204 2.076
-0.38158861 0.39345151 2.076
-0.37565714 0.39740571 2.076
-0.36577144 0.39542863 2.076
-0.35786289 0.39740571 2.076
-0.38158861 0.40136001 2.076
-0.37565714 0.40136001 2.076
-0.36577147 0.40136001 2.076
1.132903 0.40926859 2.076
1.1467431 0.40926859 2.076
1.1546514 0.4053143 2.076
1.1052231 0.41322291 2.076
1.113132 0.41322291 2.076
1.1249943 0.41322291 2.076
0.52789718 0.43299431 2.076
0.53580582 0.43299431 2.076
0.54569143 0.4369486 2.076
0.61093718 0.47253719 2.076
0.60698289 0.4844 2.076
0.61093718 0.4844 2.076
0.60698289 0.49230859 2.076
-0.69002289 0.54569143 2.076
-0.69397718 0.55294102 2.076
-0.42508581 0.55953151 2.076
-0.3954286 0.6662972 2.076
-0.3954286 0.67025149 2.076
-0.6030286 0.69397718 2.076
-0.59512007 0.69397718 2.076
-1.128949 0.70979428 2.076
-1.136857 0.71374857 2.076
-1.142789 0.72758865 2.076
-1.136857 0.72561151 2.076
-1.08576 -0.82326859 2.0880001
-1.08576 -0.81531429 2.0880001
-1.151383 -0.74173719 2.0880001
-1.1454175 -0.74173719 2.0880001
-1.1354743 -0.74306291 2.0880001
-1.143429 -0.73577142 2.0880001
1.167291 -0.14317715 2.0880001
1.163314 -0.1173257 2.0880001
1.163314 -0.1093714 2.0880001
0.14317715 -0.085508578 2.0880001
1.055931 -0.075565718 2.0880001
-0.87497145 0.063634291 2.0880001
0.78648007 0.24558857 2.0880001
0.78628123 0.25413945 2.0880001
0.78548568 0.2962971 2.0880001
0.77554286 0.30822861 2.0880001
0.78150862 0.30027431 2.0880001
-0.96047997 0.35993141 2.0880001
-0.8371886 0.35993141 2.0880001
-0.82128 0.35595429 2.0880001
-0.81465143 0.35728002 2.0880001
-0.95517713 0.36655998 2.0880001
-0.8371886 0.36390859 2.0880001
-0.82128 0.36788571 2.0880001
-0.81531429 0.36589715 2.0880001
-0.59458286 0.36390862 2.0880001
-0.57867432 0.36390859 2.0880001
-0.56475431 0.36390859 2.0880001
-0.37186289 0.36788571 2.0880001
-0.36589715 0.36788571 2.0880001
-0.38478857 0.37484574 2.0880001
-0.37584004 0.37584007 2.0880001
-0.36629486 0.37663546 2.0880001
-0.35794285 0.3778286 2.0880001
-0.38379431 0.3877714 2.0880001
-0.37584004 0.38379431 2.0880001
-0.36589715 0.38379431 2.0880001
-0.3778286 0.39373717 2.0880001
-0.4275429 0.40368 2.0880001
1.1553601 0.40633139 2.0880001
1.163314 0.40368 2.0880001
1.111611 0.4116343 2.0880001
1.123543 0.41561139 2.0880001
1.131497 0.4116343 2.0880001
1.1454175 0.4116343 2.0880001
0.5349257 0.43549711 2.0880001
0.54486859 0.43549711 2.0880001
0.5508343 0.43549711 2.0880001
0.61049139 0.43947431 2.0880001
0.61645722 0.47725713 2.0880001
-1.032069 0.4852114 2.0880001
-1.024114 0.4852114 2.0880001
0.61446857 0.49714285 2.0880001
-0.42555428 0.5587886 2.0880001
-0.37385145 0.5587886 2.0880001
-0.37186289 0.56276572 2.0880001
-0.1372114 0.66418284 2.0880001
-0.61049139 0.69798863 2.0880001
-0.45339429 0.70196569 2.0880001
-0.44742861 0.70196569 2.0880001
-0.1173257 0.70594293 2.0880001
-0.4514057 0.71787429 2.0880001
-0.44742861 0.71787429 2.0880001
-0.1226286 0.7152229 2.0880001
-1.1359714 0.72632575 2.0880001
-0.44742861 0.72384006 2.0880001
-0.1213029 0.72185153 2.0880001
-0.015908569 0.72185153 2.0880001
-1.131497 0.73577142 2.0880001
-1.086517 -0.82239151 2.1010001
-1.0855165 -0.81538808 2.1010001
-1.15455 -0.74235332 2.1010001
-1.15455 -0.73835152 2.1010001
-1.1452121 -0.73301554 2.1010001
-1.045164 -0.631634 2.1010001
-0.95545483 -0.4161981 2.1010001
1.142544 -0.19409239 2.1010001
0.27413049 -0.1220581 2.1010001
0.26345876 -0.11672223 2.1010001
0.27413049 -0.1180562 2.1010001
0.022010481 -0.094044767 2.1010001
0.022010479 -0.086040951 2.1010001
1.0556455 -0.074606933 2.1010001
1.064507 -0.070033327 2.1010001
-0.85540712 0.057027142 2.1010001
-0.85840857 0.062029529 2.1010001
-0.78437334 0.1660791 2.1010001
0.12605999 0.18408766 2.1010001
0.13006189 0.18408766 2.1010001
0.84640288 0.18208671 2.1010001
0.8504048 0.18208671 2.1010001
0.80238187 0.2261076 2.1010001
-0.8103857 0.25412095 2.1010001
-0.79637909 0.26212481 2.1010001
-1.106527 0.28213429 2.1010001
-0.80238187 0.35817051 2.1010001
-0.51824671 0.35817051 2.1010001
-0.44421145 0.35817051 2.1010001
-0.96245807 0.36217239 2.1010001
-0.81238675 0.36417335 2.1010001
-0.8043828 0.36217239 2.1010001
-0.62429714 0.36217239 2.1010001
-0.61429238 0.36217239 2.1010001
-0.60428762 0.36217239 2.1010001
-0.59428287 0.36217239 2.1010001
-0.58427805 0.36217239 2.1010001
-0.57427329 0.36217239 2.1010001
-0.56226772 0.36617431 2.1010001
-0.55426383 0.36617431 2.1010001
-0.54425907 0.36617431 2.1010001
-0.53425431 0.36350635 2.1010001
-0.52224863 0.36217239 2.1010001
-0.43220574 0.36217239 2.1010001
-0.38218191 0.36617431 2.1010001
-0.37337771 0.36457354 2.1010001
-0.38218191 0.3701762 2.1010001
-0.37818 0.3701762 2.1010001
1.146546 0.40619329 2.1010001
1.158551 0.40419239 2.1010001
1.163887 0.40352544 2.1010001
-0.43220574 0.41019529 2.1010001
1.1135302 0.41219622 2.1010001
1.1245351 0.41419709 2.1010001
1.132539 0.41419709 2.1010001
1.143878 0.41152921 2.1010001
1.152549 0.41019529 2.1010001
0.54425907 0.43420669 2.1010001
0.55426383 0.43420669 2.1010001
0.56426859 0.43420669 2.1010001
0.59508324 0.43260592 2.1010001
0.60428762 0.43220577 2.1010001
0.61349201 0.4350071 2.1010001
-0.44621241 0.44621241 2.1010001
0.6182943 0.44421145 2.1010001
0.6182943 0.45421621 2.1010001
0.61629331 0.46422094 2.1010001
0.62229621 0.49223423 2.1010001
0.64430666 0.52625048 2.1010001
-0.63029999 0.54626 2.1010001
-0.62629813 0.54626 2.1010001
-0.61229146 0.54626 2.1010001
-0.60428762 0.54626 2.1010001
-0.64230567 0.55026191 2.1010001
-0.631634 0.55159587 2.1010001
-0.62363023 0.55559778 2.1010001
-0.61379218 0.55476403 2.1010001
-0.60628861 0.55026191 2.1010001
-0.42620289 0.55626476 2.1010001
-0.38218191 0.55826569 2.1010001
-0.37417808 0.55826569 2.1010001
-0.99447334 0.57327282 2.1010001
0.58227712 0.62629813 2.1010001
-0.14406854 0.64230567 2.1010001
-0.13456404 0.65481168 2.1010001
-0.14406854 0.66231519 2.1010001
-0.62229621 0.70233428 2.1010001
-1.136541 0.71834189 2.1010001
-0.46355399 0.71567392 2.1010001
-0.11505478 0.71734142 2.1010001
-0.01400667 0.7163409 2.1010001
-1.1385421 0.72434473 2.1010001
-0.4582181 0.7223438 2.1010001
-1.13454 0.74235332 2.1010001
1.161693 -0.84358668 2.1140001
-1.089213 -0.81942672 2.1140001
-1.1153865 -0.55366671 2.1140001
-0.88586664 -0.22348 2.1140001
1.1429024 -0.19395112 2.1140001
0.27663201 -0.16549602 2.1140001
0.26374671 -0.1590533 2.1140001
0.23556 -0.13086671 2.1140001
0.28589335 -0.13489334 2.1140001
0.2919333 -0.13690665 2.1140001
0.25649863 -0.12442398 2.1140001
0.25408265 -0.11637068 2.1140001
0.026173331 -0.10268 2.1140001
0.034226671 -0.1067067 2.1140001
0.064426668 -0.10268 2.1140001
0.026173331 -0.094626673 2.1140001
0.084560007 -0.092613339 2.1140001
1.0476047 -0.077177785 2.1140001
1.0545839 -0.073688 2.1140001
-0.76708001 0.1590533 2.1140001
-0.74426222 0.15502666 2.1140001
-0.73755103 0.15234223 2.1140001
-0.7852 0.16308001 2.1140001
-0.77916002 0.16308001 2.1140001
-0.76506674 0.16308001 2.1140001
0.075164445 0.17583112 2.1140001
0.2275067 0.18321329 2.1140001
0.2315333 0.18522665 2.1140001
0.84627104 0.18589777 2.1140001
1.000627 0.19328001 2.1140001
0.80734664 0.21542668 2.1140001
1.0267999 0.3160933 2.1140001
1.012707 0.32414669 2.1140001
1.0227735 0.32012001 2.1140001
-0.75500011 0.34830669 2.1140001
-0.77647561 0.35501775 2.1140001
-0.7771467 0.3603867 2.1140001
-0.61809337 0.3603867 2.1140001
-0.60198659 0.3603867 2.1140001
-0.56977338 0.36441329 2.1140001
-0.55568004 0.36441329 2.1140001
-0.54561329 0.36441329 2.1140001
-0.52749336 0.3624 2.1140001
-0.5154134 0.3603867 2.1140001
-0.50534678 0.3603867 2.1140001
-0.49528003 0.3603867 2.1140001
-0.48789778 0.36172891 2.1140001
-0.4731333 0.3603867 2.1140001
-0.45300001 0.3603867 2.1140001
1.1274664 0.40870669 2.1140001
1.133507 0.40870669 2.1140001
1.149613 0.40870669 2.1140001
1.1563247 0.40602222 2.1140001
1.161693 0.40669334 2.1140001
-0.43286669 0.41676 2.1140001
-0.42682666 0.41676 2.1140001
1.1254535 0.41273329 2.1140001
1.13552 0.41273329 2.1140001
1.1435735 0.41273329 2.1140001
0.55568004 0.43286669 2.1140001
0.56574672 0.43286669 2.1140001
0.57581335 0.43488002 2.1140001
0.58487338 0.43588665 2.1140001
0.59393328 0.43286669 2.1140001
-1.0610271 0.50937343 2.1140001
0.62614667 0.50534678 2.1140001
0.62614667 0.5154134 2.1140001
0.62614667 0.52145332 2.1140001
0.63419998 0.52648669 2.1140001
0.64628011 0.52547997 2.1140001
-0.42884001 0.55366671 2.1140001
-0.99257332 0.58185339 2.1140001
-0.14496 0.6503067 2.1140001
-0.13891999 0.6503067 2.1140001
-1.0952535 0.71876007 2.1140001
-0.11274665 0.71876007 2.1140001
-0.01409333 0.71473342 2.1140001
-1.113373 0.72278672 2.1140001
-1.109347 0.72278672 2.1140001
-1.1147153 0.73486662 2.1140001
-1.10532 0.73486662 2.1140001
1.172889 -0.84269714 2.1270001
-1.087809 -0.8285172 2.1270001
-1.1607341 -0.73330855 2.1270001
-1.116169 -0.54694295 2.1270001
-1.108066 -0.54086572 2.1270001
-1.0533714 -0.3382943 2.1270001
1.083757 -0.1964943 2.1270001
1.116169 -0.19244289 2.1270001
1.128323 -0.19244289 2.1270001
1.122246 -0.1883914 2.1270001
0.2856257 -0.16003139 2.1270001
0.29372859 -0.16003139 2.1270001
0.29575431 -0.14585145 2.1270001
0.2329572 -0.12762 2.1270001
0.2491629 -0.1174914 2.1270001
1.047294 -0.083054289 2.1270001
1.047294 -0.074951425 2.1270001
1.0526962 -0.072250478 2.1270001
-0.75154001 0.15598001 2.1270001
-0.75829244 0.1613819 2.1270001
0.0040514283 0.1883914 2.1270001
0.1735362 0.18298954 2.1270001
0.18231431 0.18434 2.1270001
0.85485148 0.1802886 2.1270001
0.99543601 0.18515028 2.1270001
1.0229861 0.18636569 2.1270001
-0.0020257139 0.19244289 2.1270001
0.0020257139 0.19244289 2.1270001
0.98517245 0.19514382 2.1270001
1.0169085 0.3220886 2.1270001
1.0229861 0.3220886 2.1270001
-0.75559151 0.35855141 2.1270001
-0.73263335 0.35720095 2.1270001
-0.75154001 0.36260289 2.1270001
-0.74748862 0.36462861 2.1270001
-0.73533422 0.36395335 2.1270001
-0.56720001 0.36665431 2.1270001
-0.42742571 0.43957999 2.1270001
0.55504572 0.43147719 2.1270001
0.56314862 0.43147719 2.1270001
0.6077143 0.43147719 2.1270001
0.61581719 0.43147719 2.1270001
0.62324476 0.43417811 2.1270001
-0.43552861 0.44768289 2.1270001
-0.5428915 0.4517343 2.1270001
-0.53681427 0.45578569 2.1270001
-0.43552861 0.4517343 2.1270001
0.63404858 0.51655722 2.1270001
0.63539904 0.52330953 2.1270001
0.64350194 0.52465993 2.1270001
-0.43471831 0.54734802 2.1270001
-0.1519286 0.6441772 2.1270001
-0.1478772 0.6441772 2.1270001
-0.20864861 0.67861432 2.1270001
-0.01418 0.70697433 2.1270001
-0.63708717 0.7140643 2.1270001
-0.11344 0.71912861 2.1270001
-0.85485148 0.72318012 2.1270001
-0.84472293 0.72453052 2.1270001
-0.82446575 0.72318012 2.1270001
1.12299 -0.85396188 2.1400001
1.137257 -0.85396188 2.1400001
1.1379362 -0.84852713 2.1400001
1.14473 -0.84580964 2.1400001
1.1531544 -0.84662485 2.1400001
1.1820951 -0.83358097 2.1400001
-1.0781519 -0.81320012 2.1400001
-1.163752 -0.73371434 2.1400001
-1.055733 -0.63588572 2.1400001
-1.049619 -0.63792378 2.1400001
-1.043505 -0.34036189 2.1400001
-1.049619 -0.33628571 2.1400001
-0.92529529 -0.14062861 2.1400001
0.2180762 -0.1324762 2.1400001
0.2180762 -0.1284 2.1400001
0.2221524 -0.1284 2.1400001
1.053695 -0.087638102 2.1400001
-0.75613338 -0.030571431 2.1400001
-0.66238099 0.148781 2.1400001
-0.65830481 0.148781 2.1400001
-0.70314288 0.1650857 2.1400001
-0.69499046 0.1650857 2.1400001
-0.68480003 0.1650857 2.1400001
0.1569334 0.18546671 2.1400001
0.84988582 0.18139049 2.1400001
-0.01019048 0.21603811 2.1400001
0.81320012 0.21603811 2.1400001
-0.01019048 0.2221524 2.1400001
0.9925524 0.2221524 2.1400001
-0.01019048 0.2384571 2.1400001
-0.012228575 0.27310479 2.1400001
1.18821 0.28737149 2.1400001
-0.01426667 0.29144761 2.1400001
1.185492 0.29280636 2.1400001
-1.055733 0.3159048 2.1400001
-0.69363183 0.35530797 2.1400001
-0.68683821 0.35666671 2.1400001
-0.5258286 0.35666671 2.1400001
-0.69295239 0.3607429 2.1400001
-0.68480003 0.3607429 2.1400001
-0.53601903 0.36481911 2.1400001
-0.5258286 0.3607429 2.1400001
-0.51563811 0.3607429 2.1400001
-0.43462381 0.43462384 2.1400001
0.57474291 0.43411431 2.1400001
0.62977141 0.43411431 2.1400001
0.63384771 0.4361524 2.1400001
-0.4361524 0.44430482 2.1400001
0.63792378 0.44430479 2.1400001
-0.44430479 0.4504191 2.1400001
0.63792378 0.49729532 2.1400001
0.63792378 0.50544763 2.1400001
0.63792378 0.51359999 2.1400001
0.64200002 0.5197143 2.1400001
-0.45245719 0.54824758 2.1400001
-0.49253973 0.55368257 2.1400001
-0.1569334 0.6460762 2.1400001
-0.37297139 0.65015239 2.1400001
-0.1569334 0.65015239 2.1400001
-0.02241905 0.69499046 2.1400001
-0.95179051 0.71944767 2.1400001
-0.94771433 0.71944767 2.1400001
-0.8145588 0.71808887 2.1400001
-0.80504757 0.71740955 2.1400001
-0.79383814 0.71639049 2.1400001
-0.65481091 0.71653605 2.1400001
-0.6460762 0.71740949 2.1400001
-0.1141333 0.71944767 2.1400001
-1.021086 0.7235238 2.1400001
-1.0149715 0.72556186 2.1400001
-0.95586669 0.7235238 2.1400001
-0.83561909 0.72556186 2.1400001
-0.82542855 0.7235238 2.1400001
-0.81727618 0.7235238 2.1400001
-0.7948572 0.7235238 2.1400001
-0.65830481 0.7235238 2.1400001
-0.6460762 0.7235238 2.1400001
-1.101106 -0.83249331 2.1530001
-1.097005 -0.83454388 2.1530001
1.1978886 -0.83454382 2.1530001
-1.0867525 -0.82429141 2.1530001
-1.1646705 -0.73407054 2.1530001
-1.1564685 -0.7279191 2.1530001
1.2138815 -0.72586858 2.1530001
1.023188 -0.68280858 2.1530001
1.0363108 -0.67706728 2.1530001
-1.060096 -0.63769811 2.1530001
1.0641969 -0.18249241 2.1530001
1.055995 -0.1701895 2.1530001
1.060096 -0.17634094 2.1530001
0.22555241 -0.15378571 2.1530001
0.23580478 -0.15378571 2.1530001
0.21530002 -0.14558384 2.1530001
0.22555239 -0.14558382 2.1530001
0.21530002 -0.13635668 2.1530001
0.21529999 -0.12918 2.1530001
1.055995 -0.092271432 2.1530001
-0.7955848 -0.03075714 2.1530001
-0.82429141 0.05946381 2.1530001
-0.81608951 0.055362862 2.1530001
-0.086120002 0.077918097 2.1530001
-0.088170484 0.084069528 2.1530001
-0.67050582 0.1496848 2.1530001
0.78806639 0.1483178 2.1530001
-0.6848591 0.1578867 2.1530001
-0.67460674 0.1578867 2.1530001
-0.63496417 0.15515269 2.1530001
0.78615266 0.15624629 2.1530001
-0.69511145 0.1619876 2.1530001
-0.6848591 0.1619876 2.1530001
-0.67870772 0.1619876 2.1530001
-0.64179909 0.1619876 2.1530001
0.85504866 0.1783914 2.1530001
0.99858201 0.17634094 2.1530001
1.01772 0.17565745 2.1530001
1.0245551 0.17565745 2.1530001
1.060096 0.2276029 2.1530001
1.0641969 0.25220859 2.1530001
-0.73202002 0.26041049 2.1530001
1.1872261 0.28911719 2.1530001
1.1940609 0.28501621 2.1530001
1.1858591 0.29595211 2.1530001
1.0518939 0.30347049 2.1530001
0.98422861 0.3178238 2.1530001
1.047793 0.31577337 2.1530001
-0.018454291 0.32397527 2.1530001
0.99311399 0.32329178 2.1530001
-0.025630951 0.33320242 2.1530001
-0.6848591 0.35678285 2.1530001
-0.6740942 0.35524499 2.1530001
-0.66230392 0.35678285 2.1530001
-0.63564765 0.35883331 2.1530001
-0.52560538 0.35473236 2.1530001
-0.51466948 0.35883331 2.1530001
-0.96987528 0.3670353 2.1530001
-0.6746068 0.36293426 2.1530001
-0.66230392 0.36293429 2.1530001
-0.65000099 0.36293429 2.1530001
-0.64590001 0.36293429 2.1530001
-0.96987528 0.37113619 2.1530001
0.55978012 0.4285495 2.1530001
0.5659315 0.4285495 2.1530001
0.55567908 0.43265048 2.1530001
0.5659315 0.43265051 2.1530001
0.64179909 0.43675151 2.1530001
0.64453304 0.44495335 2.1530001
0.64179909 0.45315519 2.1530001
0.64179909 0.4654581 2.1530001
0.64590001 0.49416479 2.1530001
0.65000099 0.49006379 2.1530001
0.64590001 0.50441718 2.1530001
-0.97534329 0.58575279 2.1530001
-0.37113619 0.63564765 2.1530001
-0.16403809 0.64384955 2.1530001
-0.74022192 0.7197172 2.1530001
-0.72586858 0.7197172 2.1530001
-0.7197172 0.7197172 2.1530001
-0.6848591 0.7197172 2.1530001
-0.11482665 0.7197172 2.1530001
-0.72586858 0.72381812 2.1530001
-0.71766675 0.72381812 2.1530001
1.2114559 -0.84409821 2.1670001
1.2114559 -0.83584285 2.1670001
1.2135201 -0.82758772 2.1670001
1.2167629 -0.81579447 2.1670001
1.225903 -0.81107718 2.1670001
1.225903 -0.80488569 2.1670001
1.225903 -0.79456669 2.1670001
1.2252151 -0.78493553 2.1670001
1.2183353 -0.7753045 2.1670001
1.223839 -0.77599239 2.1670001
1.2155838 -0.76508367 2.1670001
1.2155836 -0.75535423 2.1670001
1.2155837 -0.74503529 2.1670001
1.2155834 -0.73677999 2.1670001
-1.157797 -0.7285248 2.1670001
1.2155837 -0.70788652 2.1670001
1.2197109 -0.69550377 2.1670001
1.223839 -0.69550377 2.1670001
1.2197109 -0.68518484 2.1670001
1.223839 -0.68518484 2.1670001
1.223839 -0.67692947 2.1670001
-1.0546068 -0.63634133 2.1670001
-1.062862 -0.62946188 2.1670001
-1.017458 -0.62327051 2.1670001
-1.114457 -0.54690951 2.1670001
1.2176476 -0.37561336 2.1670001
1.207329 -0.36529431 2.1670001
1.2167629 -0.36470461 2.1670001
-0.98650098 -0.33227339 2.1670001
1.062862 -0.1754238 2.1670001
1.062862 -0.1671686 2.1670001
0.1444667 -0.13001999 2.1670001
0.15478569 -0.13001999 2.1670001
0.1878067 -0.13001999 2.1670001
0.2084448 -0.13621145 2.1670001
0.2125724 -0.1320838 2.1670001
0.14515464 -0.12314067 2.1670001
0.15396018 -0.12424137 2.1670001
0.1424029 -0.1155733 2.1670001
0.1506581 -0.1176371 2.1670001
0.1671686 -0.1135095 2.1670001
0.17335999 -0.1135095 2.1670001
0.02682952 -0.074297145 2.1670001
-0.62533432 0.1568495 2.1670001
-0.61501527 0.1568495 2.1670001
1.0133311 0.1671686 2.1670001
0.86886382 0.1754238 2.1670001
1.000948 0.1754238 2.1670001
1.0153944 0.17129619 2.1670001
1.0257133 0.17129619 2.1670001
0.045403808 0.1857429 2.1670001
0.99681997 0.1878067 2.1670001
1.000948 0.1878067 2.1670001
1.000948 0.1919343 2.1670001
0.81933242 0.22495522 2.1670001
1.054607 0.22701904 2.1670001
-0.72026962 0.2579762 2.1670001
-0.71614188 0.2579762 2.1670001
0.65525949 0.2569443 2.1670001
0.66248292 0.25384861 2.1670001
-0.70582283 0.2621038 2.1670001
1.15367 0.27861431 2.1670001
1.2032011 0.27861431 2.1670001
-1.105514 0.28549364 2.1670001
1.1464462 0.28377381 2.1670001
1.15367 0.2827419 2.1670001
1.161925 0.2868695 2.1670001
1.199073 0.2827419 2.1670001
-1.124776 0.29099709 2.1670001
0.55929238 0.29925239 2.1670001
0.56342 0.29925239 2.1670001
0.66413397 0.29512474 2.1670001
0.6707381 0.29925239 2.1670001
1.14851 0.29512477 2.1670001
1.1547017 0.29512477 2.1670001
0.56548381 0.30338001 2.1670001
0.64597237 0.3075076 2.1670001
0.65422767 0.30544382 2.1670001
0.66454673 0.30544382 2.1670001
0.6707381 0.30338001 2.1670001
0.98856479 0.30544382 2.1670001
1.149542 0.30338001 2.1670001
1.15367 0.30338001 2.1670001
0.64597237 0.31163529 2.1670001
0.65422761 0.31163529 2.1670001
0.99475622 0.31369904 2.1670001
-1.0133311 0.32814571 2.1670001
-1.009203 0.32814571 2.1670001
1.005075 0.32401809 2.1670001
-0.63496548 0.35566321 2.1670001
-0.62615979 0.35538802 2.1670001
-0.61501527 0.35291141 2.1670001
-0.52420765 0.35703909 2.1670001
-0.51595241 0.35703909 2.1670001
-0.97411811 0.3632305 2.1670001
-0.66248292 0.36529431 2.1670001
-0.65422761 0.3632305 2.1670001
-0.64597237 0.36116669 2.1670001
-0.092871428 0.36529431 2.1670001
0.55516475 0.42720857 2.1670001
0.55722857 0.43133619 2.1670001
0.65010011 0.43959141 2.1670001
0.65216386 0.443719 2.1670001
0.65216386 0.45610189 2.1670001
0.65010011 0.46435714 2.1670001
0.65010011 0.48499522 2.1670001
-0.074297145 0.53039902 2.1670001
-0.068105713 0.53039902 2.1670001
-0.17129619 0.64184469 2.1670001
-0.1671686 0.64184469 2.1670001
1.227591 -0.83293432 2.181
1.219283 -0.82047141 2.181
1.2255139 -0.82878 2.181
1.219283 -0.81631708 2.181
0.97417998 -0.80385429 2.181
0.97106427 -0.79658431 2.181
1.227591 -0.63352859 2.181
1.219283 -0.62937433 2.181
1.2255139 -0.62522 2.181
1.227591 -0.57121432 2.181
1.227591 -0.56705999 2.181
1.227591 -0.55459708 2.181
-1.1050401 -0.54213428 2.181
-1.03234 -0.33857429 2.181
-1.028186 -0.33857429 2.181
1.2130516 -0.2056371 2.181
1.065574 -0.1640943 2.181
0.1973286 -0.1433229 2.181
0.19525146 -0.1350143 2.181
0.2044502 -0.13442083 2.181
0.085162856 -0.1225514 2.181
0.093471423 -0.1225514 2.181
0.1183971 -0.12462855 2.181
0.1225514 -0.1225514 2.181
0.18901999 -0.1225514 2.181
0.20771426 -0.12670571 2.181
1.065574 -0.1225514 2.181
0.085682146 -0.11476215 2.181
0.1183971 -0.1183971 2.181
0.12532093 -0.11701236 2.181
0.14747711 -0.11424287 2.181
0.15578571 -0.11216575 2.181
0.16547906 -0.11424287 2.181
0.17447995 -0.1183971 2.181
0.18694285 -0.11632 2.181
0.1931743 -0.11632 2.181
1.065574 -0.11424285 2.181
0.022848571 -0.074777141 2.181
-0.068545707 -0.064391427 2.181
0.013709141 -0.066053137 2.181
0.022848571 -0.068545707 2.181
-0.083085716 -0.047774289 2.181
-0.095963992 -0.013709141 2.181
-0.095548563 0.062314287 2.181
0.78308278 0.12670571 2.181
0.77685142 0.1350143 2.181
-0.60306382 0.15717046 2.181
-0.10178 0.1516314 2.181
0.87032282 0.17655709 2.181
0.88278568 0.1724028 2.181
1.007414 0.18278855 2.181
0.67091721 0.2347171 2.181
1.0178 0.24718 2.181
-0.57952279 0.25133431 2.181
1.015723 0.26587427 2.181
1.219283 0.2637971 2.181
1.223437 0.2637971 2.181
1.161123 0.27625999 2.181
-1.1175029 0.28664571 2.181
0.55459714 0.28872281 2.181
0.56498289 0.28872281 2.181
1.152814 0.28872281 2.181
-1.11958 0.29287711 2.181
-1.082191 0.2970314 2.181
-1.078037 0.2970314 2.181
0.55542803 0.29536968 2.181
0.56498289 0.29495424 2.181
0.57259911 0.29564664 2.181
0.67299432 0.2970314 2.181
1.152814 0.29287711 2.181
-1.0915385 0.30533999 2.181
-1.0842686 0.30949429 2.181
0.55400372 0.30415305 2.181
0.57536858 0.30257046 2.181
1.1663156 0.30430144 2.181
-1.078037 0.31572568 2.181
-0.99391294 0.33338141 2.181
-0.98664278 0.33442 2.181
-0.60029429 0.34688279 2.181
-0.53382581 0.34688279 2.181
-0.52967137 0.34688279 2.181
-0.98248857 0.35103711 2.181
-0.97833419 0.35519141 2.181
-0.60652578 0.35103711 2.181
-0.53382581 0.35103711 2.181
-0.52634794 0.35352969 2.181
-0.97556472 0.36626956 2.181
-0.50682282 0.3635 2.181
0.55736667 0.42442954 2.181
0.6584543 0.46528 2.181
-0.093471423 0.54213428 2.181
-0.99079722 0.58575428 2.181
-0.98456568 0.58575428 2.181
-0.05608286 0.58367717 2.181
-0.17447995 0.64391428 2.181
-0.11507373 0.72243023 2.181
-1.094214 -0.82396889 2.194
-1.094214 -0.81421781 2.194
-1.1652579 -0.73620892 2.194
-1.147148 -0.72924381 2.194
-1.00924 -0.62058848 2.194
1.2328191 -0.48685899 2.194
-1.017598 -0.33641329 2.194
1.180581 -0.20268381 2.194
1.2328191 -0.20477335 2.194
1.071926 -0.17552 2.194
1.067747 -0.1650724 2.194
1.071926 -0.16507235 2.194
1.071926 -0.15671431 2.194
0.1901467 -0.13790855 2.194
0.16507237 -0.1232819 2.194
0.1776095 -0.1232819 2.194
0.1845746 -0.12467494 2.194
0.19516154 -0.12578936 2.194
1.067747 -0.1232819 2.194
0.094028577 -0.11701335 2.194
0.15671431 -0.11492383 2.194
0.16298285 -0.1191029 2.194
0.18178859 -0.11701335 2.194
1.071926 -0.1149238 2.194
1.071926 -0.1065657 2.194
-0.013790858 -0.083998866 2.194
-0.0041790474 -0.083580956 2.194
0.0041790474 -0.083580956 2.194
-0.02298476 -0.073133327 2.194
-0.015462476 -0.075640753 2.194
-0.0041790474 -0.07731238 2.194
0.0048755552 -0.07591936 2.194
-0.045969523 -0.064775243 2.194
-0.03273588 -0.067561276 2.194
-0.025074285 -0.068954289 2.194
-0.67630911 -0.032735877 2.194
-0.66655809 -0.02298476 2.194
-0.09542159 -0.0048755552 2.194
-0.09681461 0.0034825394 2.194
-0.095073342 0.036566667 2.194
-0.0961181 0.045969523 2.194
-0.089849517 0.098207623 2.194
0.77939242 0.127461 2.194
0.78357142 0.127461 2.194
-0.098207623 0.14417709 2.194
-0.59760374 0.15671431 2.194
-0.59551424 0.16089331 2.194
-0.58506668 0.16089331 2.194
-0.57670856 0.1650724 2.194
-0.56417137 0.1650724 2.194
-0.55790281 0.1650724 2.194
0.88804758 0.1692514 2.194
0.8922267 0.1692514 2.194
0.66655809 0.1734305 2.194
0.67491609 0.17552 2.194
0.88386858 0.1734305 2.194
-0.0961181 0.22775809 2.194
-0.1023867 0.2361162 2.194
-0.09681461 0.23333013 2.194
-0.1023867 0.24238476 2.194
-0.098207623 0.2402952 2.194
1.230729 0.24865329 2.194
0.56208187 0.25492191 2.194
1.1575965 0.27790669 2.194
0.54954481 0.28626469 2.194
0.54954481 0.2988019 2.194
0.58506668 0.30507049 2.194
1.176402 0.30715999 2.194
-0.98834473 0.34895051 2.194
-0.58506668 0.34477139 2.194
-0.57183295 0.34616444 2.194
-0.54118657 0.34895051 2.194
-0.98416573 0.35312951 2.194
-0.97998661 0.3573086 2.194
-0.57043999 0.35312951 2.194
-0.56417137 0.35312951 2.194
-0.55581331 0.3573086 2.194
-0.54536569 0.35521907 2.194
-0.51611239 0.3614876 2.194
-0.50357533 0.36566669 2.194
-0.49521717 0.3684527 2.194
0.55790281 0.41999429 2.194
0.54954481 0.42626286 2.194
0.55511683 0.42556635 2.194
0.66655809 0.42835239 2.194
-0.094028577 0.4471581 2.194
0.66655809 0.4492476 2.194
-0.094028577 0.45342669 2.194
0.66377205 0.45481968 2.194
-1.005061 0.50775433 2.194
-0.98625523 0.57461905 2.194
-0.98834473 0.58297712 2.194
-0.17552 0.62894672 2.194
-0.17552 0.63521522 2.194
-0.1762165 0.6428768 2.194
-0.1692514 0.64357328 2.194
-0.014626667 0.66655809 2.194
-0.014626667 0.67491615 2.194
-0.01402966 0.69461739 2.194
-0.018805711 0.70416951 2.194
-0.11387908 0.71566182 2.194
-0.1191029 0.72088569 2.194
0.90633148 -0.87478864 2.2079999
0.91474289 -0.8747887 2.2079999
0.92595822 -0.87548953 2.2079999
0.93577152 -0.8747887 2.2079999
0.90633148 -0.86427432 2.2079999
0.90633148 -0.85586292 2.2079999
0.91369146 -0.85270864 2.2079999
-1.095589 -0.82221723 2.2079999
-1.150263 -0.736 2.2079999
1.087177 -0.7254858 2.2079999
1.0943872 -0.7254858 2.2079999
1.087177 -0.71497142 2.2079999
0.97782862 -0.64137149 2.2079999
-0.81801152 -0.2292114 2.2079999
1.137646 -0.2081829 2.2079999
1.078766 -0.1829486 2.2079999
1.07456 -0.16192 2.2079999
-0.87268579 -0.1450972 2.2079999
1.07456 -0.11565717 2.2079999
1.07456 -0.10514285 2.2079999
1.07456 -0.092525721 2.2079999
-0.025935242 -0.076403819 2.2079999
-0.67291433 -0.033645716 2.2079999
-0.66450292 -0.033645716 2.2079999
-0.64557719 -0.025234289 2.2079999
-0.63506287 -0.025234289 2.2079999
-0.62735248 -0.025935242 2.2079999
-0.084114291 0.002102857 2.2079999
-0.060982861 0.0063085719 2.2079999
1.2343769 0.014720003 2.2079999
1.2352183 0.024813717 2.2079999
1.23648 0.035748575 2.2079999
-0.72758865 0.04626286 2.2079999
1.23648 0.04626286 2.2079999
-0.73810291 0.052571431 2.2079999
1.2352183 0.05509486 2.2079999
1.234377 0.065188572 2.2079999
1.234377 0.094628572 2.2079999
1.2343769 0.10514285 2.2079999
0.78857148 0.1198629 2.2079999
0.79277718 0.1198629 2.2079999
1.234377 0.11565717 2.2079999
0.78436583 0.1240686 2.2079999
0.79277718 0.1240686 2.2079999
-0.58669722 0.15771431 2.2079999
-0.56777143 0.15561146 2.2079999
-0.58249152 0.16192 2.2079999
-0.57407999 0.16192 2.2079999
-0.56566858 0.16192 2.2079999
-0.55515432 0.16192 2.2079999
-0.54674292 0.16192 2.2079999
-0.53202289 0.16402285 2.2079999
-0.52781719 0.16192 2.2079999
