# .PCD v0.7 - Point Cloud Data file format
VERSION 0.7
FIELDS x y z
SIZE 4 4 4
TYPE F F F
COUNT 1 1 1
WIDTH 1560
HEIGHT 1
VIEWPOINT 0 0 0 1 0 0 0
POINTS 1560
DATA ascii
-1.901286 2.0857251 -0.4630985
1.692083 2.25876 -0.4630985
4.289247 2.281116 -0.46181381
4.270421 2.398567 -0.46559921
4.258904 2.4788721 -0.46843821
-0.73352051 3.049444 -0.46015161
-1.916193 3.0827141 -0.46976891
3.570318 -3.235528 -0.45802841
3.651125 -3.0826859 -0.45424309
1.069295 -1.592149 -0.45007741
3.8300459 1.418733 -0.45830241
3.7207179 1.560415 -0.45272699
3.742322 1.660831 -0.45941749
-1.889356 1.988996 -0.45014471
-1.089255 2.0088151 -0.45506421
0.50289381 2.0401001 -0.45562071
-1.816651 2.0818789 -0.45338309
-1.064363 2.282891 -0.45731911
-0.59792757 2.737994 -0.45986
-0.78286219 2.975807 -0.45144209
0.62358338 3.023315 -0.4528937
-0.35746229 3.056226 -0.45144209
-0.30350819 3.0620551 -0.45144209
1.482329 3.1605351 -0.45179951
3.3095 -3.2650869 -0.4419407
3.4973929 -3.062978 -0.4419407
-2.6923971 0.092149287 -0.44204849
-2.005054 0.38947549 -0.44290569
3.6981421 1.4576679 -0.4460364
-1.771327 1.663913 -0.44124141
-2.5573831 3.056133 -0.44715151
-0.2404307 3.0577281 -0.44999051
0.25700599 3.05638 -0.44999051
0.1941721 3.0610139 -0.44999051
-2.461477 3.0704629 -0.44157609
1.360083 3.1827061 -0.44794899
1.382246 -1.0332921 -0.4360092
-2.579109 1.449111 -0.43402311
0.61265069 2.099493 -0.43553361
1.260393 2.687335 -0.43547469
1.50108 3.030395 -0.43768081
-2.359807 3.07444 -0.4348855
-2.293252 3.0749519 -0.4304252
1.364704 3.0725169 -0.43511379
3.2626629 -3.084311 -0.42679921
1.03607 -1.485119 -0.42494619
-2.043494 -1.18335 -0.4287366
-2.6110079 0.144972 -0.42909479
0.50936598 2.0663559 -0.42381519
0.53104651 2.8801 -0.4296684
-2.1873419 3.0661099 -0.42261949
0.72877407 3.1905301 -0.42356211
5.1801229 -1.271172 -0.41586411
-1.275506 -1.229874 -0.41580749
5.1816988 -1.1778131 -0.4143095
-2.782655 -0.4562698 -0.413701
-1.919636 2.105855 -0.41805571
1.300089 2.4910679 -0.41224939
0.46438739 2.8013721 -0.4166041
-2.086988 3.087414 -0.41815919
-2.006357 3.0812831 -0.41258371
-1.042999 -1.225731 -0.40661529
-2.0025139 0.38898209 -0.4062376
3.8255939 1.875947 -0.40503341
3.828748 1.914446 -0.4069261
0.52201903 1.94157 -0.40037841
-1.901158 2.00142 -0.40499151
-1.821447 2.0873749 -0.40644309
0.52749789 2.1399119 -0.4001542
0.6229009 2.134619 -0.40372699
1.704265 2.1966341 -0.40789461
-0.5952841 2.725889 -0.40934619
-1.914878 3.0805981 -0.4070082
2.0027001 -0.84701139 -0.394795
3.941664 1.394743 -0.3974627
-1.776528 1.668798 -0.39994869
0.67725152 2.320873 -0.39671019
4.2302442 2.7116699 -0.39176729
4.2127709 2.829155 -0.3956539
4.1972818 2.9224501 -0.39876309
-0.71668571 2.9794569 -0.39660811
-0.78469813 2.982785 -0.3991752
0.62103897 3.0109789 -0.39789161
-0.3032417 3.0593669 -0.39789161
0.1267097 3.0518949 -0.39532459
-0.3583006 3.0633941 -0.3991752
0.1946274 3.068192 -0.39789161
1.498029 3.194011 -0.3958573
-2.049494 -1.186824 -0.38861409
1.990774 -0.79847258 -0.38943571
1.988755 -0.74937588 -0.38586289
2.0142779 -0.57862133 -0.38050371
2.043381 -0.54733658 -0.38407651
2.0831289 -0.51118767 -0.38943571
-2.5981419 0.14425769 -0.3817662
3.846122 1.424687 -0.38989201
-2.5765109 1.447651 -0.38248941
3.7180851 1.559311 -0.38326761
3.748908 1.663753 -0.38989201
0.55180877 2.0523691 -0.38586289
4.2766929 2.4020901 -0.38243949
4.2651591 2.482513 -0.3847715
4.2361989 2.5894339 -0.38710341
3.575562 -3.2402799 -0.376221
1.205472 -1.240582 -0.37509239
1.245301 -1.22859 -0.37933081
1.257028 -1.188313 -0.37509239
1.267288 -1.148454 -0.37085411
1.286594 -1.126785 -0.37085411
1.306771 -1.103321 -0.37085411
1.411992 -0.9650107 -0.37085411
1.437153 -0.94502991 -0.3729732
-2.008991 0.39024031 -0.37157169
3.6953881 1.456582 -0.37758961
-1.9375 2.125452 -0.3722212
-1.917004 2.1968839 -0.37735531
4.295547 2.284466 -0.37933019
-2.565757 2.9403529 -0.37096521
1.347334 3.0334101 -0.3724404
-2.561883 3.0615101 -0.37948221
-2.4658091 3.075866 -0.37475061
3.3001671 -3.2558789 -0.36145201
3.5879281 -3.0293281 -0.3661159
1.383227 -0.98909992 -0.3687349
-2.7793939 -0.45573509 -0.3645201
-2.845041 -0.083336018 -0.36837071
-2.4621849 0.084270127 -0.361444
1.29396 2.479326 -0.36195299
-0.5966801 2.7322819 -0.36195299
0.46385449 2.7981579 -0.3670871
0.51790547 2.808831 -0.36965421
0.39830849 2.828269 -0.36965421
1.446817 2.9208469 -0.3657499
-2.36396 3.07985 -0.3690725
-2.2913351 3.0723829 -0.36434081
3.435029 -3.0083599 -0.35601079
2.017669 -0.85334229 -0.35946801
-2.7653041 0.094644591 -0.3581025
-1.774007 1.66643 -0.35708931
-1.905616 2.0061131 -0.3581025
-2.191191 3.0715051 -0.35866281
-2.0850861 3.084599 -0.3539311
-2.0098879 3.086705 -0.3501457
0.64038032 3.1047511 -0.35571411
3.26021 -3.0819919 -0.34979221
-2.0463419 -1.184999 -0.34692821
-0.71350777 2.9662459 -0.34233299
-0.54585087 3.052115 -0.34790841
-0.4810527 3.0629971 -0.34790841
-2.005203 0.38950449 -0.33517969
4.0602422 1.34437 -0.33346859
-2.573133 1.445753 -0.33118209
3.831213 1.878702 -0.33269131
3.8343711 1.917258 -0.33424589
1.496438 3.190618 -0.3350043
5.1229401 -1.471616 -0.3247087
5.1679001 -1.3842649 -0.32592481
5.1765361 -1.270291 -0.3247087
5.1780739 -1.17699 -0.3234925
-2.5448229 0.14129721 -0.32986501
3.9286561 1.3901401 -0.32491809
3.77264 1.6742851 -0.3218089
-1.812904 1.777361 -0.32858151
-1.9481699 2.137157 -0.3244915
0.51716608 2.804821 -0.32003111
0.47780779 2.882329 -0.32783681
0.40882671 2.902956 -0.3289519
5.0061798 -1.027442 -0.31133121
-2.7850959 -0.45667011 -0.31668589
-2.8321979 -0.0125628 -0.317801
-2.770977 0.094838783 -0.31111041
3.8330729 1.419854 -0.3186996
3.723546 1.561601 -0.31481299
-1.785395 1.677127 -0.3170298
-1.91637 2.0174339 -0.31222549
1.282822 2.457983 -0.31111041
-0.59578413 2.728179 -0.3133406
4.2260232 2.8380549 -0.31011501
4.2104211 2.9315979 -0.3125473
-2.5656459 3.0660069 -0.31170371
-2.0425589 -1.182809 -0.3054781
-2.0104971 0.3905327 -0.30047759
3.691541 1.455066 -0.3093718
-1.903087 1.933517 -0.30441979
4.2701869 2.4854391 -0.30099401
4.2497091 2.597692 -0.3034263
4.2436342 2.720253 -0.3070747
-2.5760801 2.952184 -0.30548519
-2.4631951 3.0726049 -0.30703989
-2.3674321 3.084374 -0.30315331
0.51772201 3.1231079 -0.30093601
0.58847678 3.19157 -0.30850679
0.45119491 3.203799 -0.30756041
3.564985 -3.2306941 -0.29308909
4.264329 2.3951459 -0.29795361
-0.5468114 3.0574861 -0.29525799
-2.2947011 3.076896 -0.2992667
-2.1944089 3.0760159 -0.29460281
-2.0881481 3.089129 -0.2907162
3.6074109 -3.045778 -0.28761649
3.4616051 -3.031635 -0.28031969
-2.5808079 -1.422169 -0.28011659
-2.559967 0.14213809 -0.2876935
-2.577661 1.448298 -0.2810629
-1.82372 1.7879651 -0.28657839
-0.71010703 2.952107 -0.28863361
-2.01284 3.091239 -0.28760701
-2.8459439 -0.083362482 -0.27065319
-1.796301 1.687372 -0.2765426
-1.958305 2.1482749 -0.27633119
1.281449 2.5870011 -0.2744385
0.30558631 2.900799 -0.27727759
1.4164391 3.1889939 -0.2720606
1.498636 3.1953039 -0.27516991
-2.0381501 -1.1802551 -0.26427659
-2.7899971 -0.4574737 -0.2687605
-2.83459 -0.1218797 -0.26970679
-2.7758529 0.095005661 -0.26402879
-2.005476 0.38955751 -0.2644054
3.829963 1.915054 -0.26086149
-1.926599 2.0282021 -0.2659215
1.275867 2.4446571 -0.2621361
-0.59683251 2.73298 -0.2659215
3.9332869 1.3917789 -0.25417271
3.7931089 1.7616791 -0.2547808
-1.913419 1.944014 -0.2592971
0.4504672 3.198633 -0.2518504
0.52989548 3.196543 -0.2526277
0.94032788 -1.678506 -0.2490032
3.8375909 1.421527 -0.2493082
3.6958921 1.456781 -0.24201129
3.7187309 1.559582 -0.24565969
3.749716 1.664112 -0.2499162
-1.848255 1.812019 -0.2460483
1.264905 2.303736 -0.2498337
1.402813 2.8320129 -0.24640919
-0.72047651 2.9952171 -0.2401907
-2.568671 3.0696211 -0.24383549
-2.4660981 3.0762269 -0.24018709
5.1178951 -1.470166 -0.2337984
-2.584599 -1.424258 -0.2300856
5.1724968 -1.385496 -0.2351144
5.1811409 -1.271422 -0.2342371
5.1729379 -1.175822 -0.23292109
-2.5814469 1.450425 -0.2308629
-1.799462 1.6903419 -0.23469231
-2.5791171 2.9556639 -0.23897099
-2.2914391 3.072521 -0.23349839
-2.364146 3.080092 -0.23653869
-2.0417371 -1.182332 -0.2242825
5.0302062 -1.032373 -0.2254642
-2.8487151 -0.122487 -0.22231241
-2.0095911 0.39035669 -0.22970881
-1.927599 2.1145899 -0.22308969
1.314643 2.518955 -0.2215351
4.2474089 2.7226729 -0.2215163
4.221489 2.8350101 -0.22327089
0.3018572 2.8654001 -0.2246443
-2.1911991 3.071517 -0.2298499
-2.0850201 3.084502 -0.22680961
-2.0097661 3.086518 -0.2243773
-1.860765 1.958897 -0.21065269
1.705075 2.1976781 -0.2168712
-2.581466 2.324146 -0.2116079
4.285543 2.4070611 -0.21581391
-2.5826671 2.426053 -0.21586441
1.329141 2.420728 -0.2153165
4.2739849 2.4876499 -0.2171299
4.262013 2.6052141 -0.2193231
-0.59558201 2.727253 -0.21764851
1.662559 3.1855891 -0.2189047
1.581687 3.1931241 -0.2170805
3.4947469 -3.0606599 -0.20397051
-2.590616 0.088665783 -0.2021022
-2.578192 0.14315 -0.2013249
-1.832307 1.861605 -0.20365679
1.594928 2.904798 -0.2018788
1.407158 3.0002589 -0.2018788
1.365436 3.0741651 -0.2049191
-1.8093719 1.69965 -0.1935517
-1.822493 1.786763 -0.19899289
0.45099819 3.2024031 -0.1970142
-2.036108 -1.179073 -0.1834466
-1.854835 0.60562789 -0.18548261
3.9273679 1.389684 -0.18291549
3.796483 1.7632461 -0.1837928
3.797183 1.877342 -0.185986
3.806777 1.880476 -0.1864246
3.8391421 1.8825901 -0.18774059
3.83337 1.916757 -0.18817919
1.491828 2.5848589 -0.18181249
-0.71899152 2.989043 -0.1872852
0.36180139 3.0328331 -0.186069
-2.5876451 -1.4259371 -0.17998829
-1.934173 -1.1750489 -0.1764507
-1.914778 1.129814 -0.1733415
3.8410051 1.422792 -0.1798449
3.6991799 1.458077 -0.1745812
3.6759739 1.5416501 -0.1750198
3.7347889 1.657487 -0.1794063
-2.0095119 2.0416429 -0.17451569
-1.945452 2.048049 -0.17208339
-1.916423 2.10233 -0.1732996
1.713203 2.2081549 -0.17025919
1.499316 2.4760771 -0.17633989
-0.59841371 2.7402201 -0.17086729
-0.43981391 2.8004179 -0.17269149
-0.1602906 2.800216 -0.17086729
-0.33279109 2.845293 -0.17451569
-0.2237764 2.8459229 -0.17390759
-0.58491677 2.865489 -0.17816409
-0.51311523 2.8690741 -0.1775561
-0.28354529 2.8606529 -0.1751238
-0.4023512 2.906846 -0.1787722
-2.5814109 2.958293 -0.172388
-2.570956 3.0723519 -0.17589711
-2.468292 3.078963 -0.1732652
-2.3662491 3.0828321 -0.17063341
-2.3610179 -1.236178 -0.16235431
-2.377614 -1.203948 -0.16235431
-2.578948 2.6201849 -0.16142181
-2.573308 2.709017 -0.16405369
-0.0025502101 2.7349291 -0.16661081
-0.049528129 2.7444639 -0.16721889
0.055865731 2.744343 -0.16721889
0.1744031 2.749367 -0.167827
0.2308398 2.745204 -0.167827
0.28966439 2.7496591 -0.16843501
0.1142802 2.752522 -0.167827
-0.09945786 2.7630849 -0.16843501
-2.557503 2.8055999 -0.1666856
-2.2934771 3.0752549 -0.1684401
-2.1931491 3.074249 -0.16580831
-2.086875 3.087245 -0.163615
-2.011554 3.0892639 -0.1618605
-2.571265 0.1427654 -0.1568817
-1.908471 0.54213619 -0.1546859
-2.475713 0.59101552 -0.1550575
-1.980274 1.723323 -0.15992209
-2.5849359 2.249527 -0.1504557
-2.5763381 2.3195291 -0.15221021
-2.5995281 2.441891 -0.15659671
-2.59672 2.5458109 -0.15966719
1.5786591 3.1870129 -0.156158
1.6640379 3.1884229 -0.1579126
5.1267309 -1.591429 -0.1445054
5.130579 -1.47381 -0.1436981
5.1756048 -1.3863291 -0.1442363
5.1745458 -1.269803 -0.143429
-2.0644209 -1.1954679 -0.1453284
5.1468039 -1.1698821 -0.1420835
-2.3418059 0.45488849 -0.1453284
-2.3413429 0.50676852 -0.1459365
-2.5763209 2.05709 -0.1447532
-2.601351 2.1686311 -0.1487011
1.5819221 2.88111 -0.1443146
0.45139939 3.2052519 -0.1421214
-1.962045 -1.191982 -0.1398558
-1.877281 -1.195963 -0.1355993
5.0626059 -1.039022 -0.1391234
-1.897033 1.065877 -0.132559
4.2938328 2.499202 -0.1337415
1.498149 2.5958109 -0.1315939
4.264575 2.6067791 -0.1345488
4.2583771 2.7297039 -0.13616329
1.344776 2.8672531 -0.1390509
-0.71963102 2.9917021 -0.135103
0.36212331 3.035531 -0.1342257
-2.3907011 -1.452399 -0.1228209
-2.4898839 -1.441846 -0.12633011
-2.589947 -1.427205 -0.1298393
1.647174 2.1988111 -0.1206277
1.485539 2.3584521 -0.1223823
1.4903001 2.4611881 -0.12633011
-0.59894598 2.7426579 -0.1232596
0.30038849 2.851459 -0.12589151
-0.51708919 2.891295 -0.128962
-0.45415539 2.8917339 -0.12852331
0.060185339 2.956538 -0.1298393
-2.2833891 -1.4546829 -0.1188731
-2.1856999 -1.458186 -0.1153639
-2.1243141 -1.4597549 -0.1131707
4.0141521 1.329109 -0.1138282
3.8731849 1.370512 -0.1105991
3.7715659 1.751673 -0.1119446
3.7994649 1.8784699 -0.1140973
3.8001029 1.877179 -0.1140973
3.832474 1.87932 -0.1149046
3.844615 1.92238 -0.1157119
-2.0197859 -1.452114 -0.1092229
-1.940727 -1.458463 -0.106591
-2.0380759 1.145124 -0.1026432
-1.961391 1.27201 -0.1026432
-1.96697 1.335863 -0.1043978
-1.97299 1.37994 -0.1057137
3.7964439 1.406285 -0.1089845
3.6921029 1.455287 -0.1068317
3.6689639 1.53871 -0.1071008
3.7096219 1.646319 -0.1092536
-2.5748539 2.710645 -0.1006425
-2.545572 2.792511 -0.1017189
-2.582963 2.9600711 -0.1057553
-2.1886611 3.0679591 -0.1014498
-2.5725009 3.074198 -0.1079081
-2.2948551 3.0771029 -0.1033334
-2.469775 3.0808129 -0.1062935
-2.367671 3.0846839 -0.1046789
-2.088129 3.0891011 -0.1003734
1.926128 3.1809449 -0.1001043
-1.910136 1.127075 -0.097379461
-1.911407 1.182912 -0.098695397
-2.595237 2.163533 -0.090954959
-2.578948 2.2443161 -0.092031352
-2.570457 2.314234 -0.093107738
-2.586518 2.4296701 -0.095529623
-2.59828 2.5473411 -0.097951487
-2.580498 2.6217589 -0.099027887
-2.012763 3.09112 -0.09929698
1.838834 3.1861081 -0.099027887
1.5840451 3.197886 -0.096067809
1.665038 3.1903391 -0.096875101
-2.5832109 1.675276 -0.082882032
-2.5883679 1.757884 -0.084227517
-2.588546 1.810469 -0.085034817
-2.5820701 1.888252 -0.086111203
-2.574595 1.981492 -0.087456688
-2.585681 2.064563 -0.089071266
1.666652 2.529135 -0.081536546
1.582873 2.8828421 -0.088533081
1.358319 2.8961279 -0.086111203
0.3623409 3.0373549 -0.082343839
0.45027661 3.197279 -0.086918503
-2.392138 -1.453272 -0.075347297
-2.284761 -1.4555579 -0.072925434
-2.1870129 -1.4590631 -0.070772648
-2.49138 -1.442713 -0.077500083
-2.5915041 -1.428063 -0.079652861
-2.882802 -0.3055498 -0.078038283
-2.5796289 1.449403 -0.079652861
1.666144 2.224133 -0.074809112
1.659531 2.3157239 -0.07669279
1.662778 2.4111941 -0.078845568
-0.59717321 2.73454 -0.075347297
0.29638001 2.8134069 -0.076154597
-2.1255901 -1.460632 -0.069427148
5.128335 -1.591926 -0.053416122
5.1225719 -1.4715101 -0.053018231
5.1675649 -1.3841749 -0.05321718
5.1761651 -1.2702 -0.053018231
5.1679149 -1.17468 -0.05271982
5.1131659 -1.049399 -0.05192405
3.9964221 1.323239 -0.041877441
3.874397 1.37094 -0.040882729
3.788254 1.403252 -0.040186431
3.710783 1.646834 -0.040385369
3.754607 1.7437969 -0.04118114
3.7921135 1.8737665 -0.04207639
3.833672 1.879908 -0.04247427
3.845818 1.922981 -0.042772681
3.693258 1.455742 -0.03949013
3.6608911 1.535324 -0.03949013
-2.5840189 1.6758 -0.03063718
-2.5891781 1.7584341 -0.03113454
-2.5893559 1.811036 -0.031432949
-2.5828781 1.8888431 -0.03183084
-2.5754001 1.9821121 -0.032328188
-2.586489 2.0652089 -0.032925021
-2.5960481 2.1642101 -0.033621319
-2.572212 2.2384541 -0.033919729
-2.5712609 2.3149581 -0.034417089
-2.580039 2.423584 -0.03521286
-2.599093 2.5481369 -0.036207579
-2.574291 2.615453 -0.03650599
-2.582546 2.7187431 -0.03730176
-2.5396309 2.785995 -0.037500702
1.578555 2.8749781 -0.03262661
-2.583771 2.9609971 -0.039092239
1.396958 2.978513 -0.032726079
0.36245421 3.038306 -0.030438241
-2.5668881 3.0674911 -0.03978854
-2.295573 3.0780649 -0.038197
-2.195153 3.077059 -0.037600171
-2.4705479 3.0817771 -0.039291192
-2.3745 3.093581 -0.038793828
-2.0887821 3.0900669 -0.037102818
-2.013392 3.092087 -0.036704931
1.571225 3.172004 -0.03521286
2.1912391 3.177515 -0.038395941
1.839409 3.1871049 -0.036605459
2.0038459 3.1813209 -0.037401229
2.0963471 3.1811941 -0.037898589
1.6655591 3.1913371 -0.035809688
1.93191 3.1904931 -0.037102818
-2.500813 -1.448175 -0.02874722
-2.592314 -1.42851 -0.029443519
-0.59736001 2.735395 -0.02785198
0.28913939 2.7446761 -0.027454089
-0.5973748 2.7354629 0.019651361
0.28809899 2.7347989 0.01930044
-2.4922211 -1.4432 0.020212829
-2.6011369 -1.4333709 0.02084448
-2.8123741 -0.46114269 0.020002279
3.996521 1.323272 0.02954722
3.8650661 1.3676389 0.0287752
3.788348 1.4032871 0.028354101
3.684047 1.452112 0.02779264
3.670203 1.53923 0.027933
3.710875 1.646874 0.02849447
-2.584084 1.675842 0.021616491
3.7637701 1.748053 0.029126121
-2.589242 1.758477 0.021967409
3.8011732 1.8782433 0.02975777
3.8337669 1.879954 0.029968319
-2.563894 2.3083251 0.024213281
-2.5801029 2.4236441 0.02484493
-2.5920169 2.5411999 0.02547658
-2.5743549 2.6155181 0.02575732
-2.5757239 2.71156 0.0262486
-2.539695 2.7860639 0.02645915
1.429229 2.8853409 0.02259906
1.583407 2.8838151 0.02309035
-2.5838349 2.9610701 0.02758209
0.3636477 3.048311 0.02154631
-2.1777849 3.0527129 0.026318779
-2.29563 3.0781419 0.026950439
-2.579787 3.0829051 0.028213739
-2.4706089 3.0818541 0.02772245
-2.3745589 3.093658 0.027371541
-2.094434 3.098428 0.0262486
-2.013443 3.092164 0.02589768
1.839455 3.1871841 0.025827499
1.926779 3.182019 0.02610823
2.003896 3.1814001 0.026388969
2.0963991 3.181273 0.02673988
2.19697 3.1858261 0.027160989
2.2833531 3.1862111 0.0275119
1.503147 3.2049229 0.02484493
1.6702271 3.2002809 0.025336221
5.1284618 -1.591966 0.037688501
5.1227002 -1.471547 0.03740776
5.1676931 -1.384209 0.037548129
5.1860051 -1.272615 0.037477951
5.1680441 -1.17471 0.03719721
5.162271 -1.059477 0.03698666
3.8369689 1.918557 0.03010869
-2.801769 -0.4594039 0.068108313
-0.59935057 2.7445099 0.067388862
0.28907049 2.7440219 0.066189773
-2.591697 -1.428169 0.070986129
-2.5834041 1.675401 0.073863953
1.578179 2.874294 0.078660309
1.428853 2.884582 0.077221401
0.3623679 3.0375819 0.073384307
0.45170441 3.207417 0.077701032
-2.5632191 2.307718 0.082737207
-2.5794251 2.423007 0.084895574
-2.591336 2.5405321 0.08705394
-2.573678 2.61483 0.088013209
-2.568161 2.703599 0.089452118
1.6004061 3.066499 0.082977027
-2.093883 3.0976131 0.089691937
-2.012913 3.091351 0.088492841
1.93145 3.189734 0.089452118
1.843968 3.195004 0.088492841
1.5027519 3.2040801 0.084895574
3.816927 1.350605 0.09712629
3.7311039 1.382082 0.09544757
3.627274 1.429734 0.093529023
3.591109 1.5937231 0.094248474
3.6449101 1.692849 0.09640684
3.674901 1.8153321 0.098325387
3.6838651 1.81976 0.098565198
3.7070949 1.817838 0.099044837
3.6832459 1.8210109 0.098565198
3.7197189 1.859929 0.099764287
-2.539027 2.785331 0.090411387
-2.5897281 2.967824 0.094488293
-2.1888239 3.068187 0.090411387
-2.5726931 3.0744281 0.09616702
-2.2950261 3.077332 0.092090108
-2.476213 3.0888431 0.094967932
-2.373934 3.092845 0.093529023
2.0033691 3.180563 0.090171568
2.0958469 3.1804359 0.091370657
2.1963921 3.184988 0.092809573
2.282753 3.1853731 0.094008662
3.908937 1.639351 0.1016828
3.7865789 2.0137861 0.1028819
-2.800225 -0.45915079 0.1162649
-2.8948939 -0.1244726 0.1187212
-2.8563769 -0.083668083 0.1170837
0.28786451 2.732574 0.1125805
-0.60115218 2.7527599 0.1154462
5.1271129 -1.591547 0.1287823
5.1213531 -1.471159 0.127823
-2.59902 -1.432205 0.1215869
5.1663342 -1.383845 0.1283026
5.174932 -1.2698981 0.127823
5.1666851 -1.174401 0.12710349
-2.5819809 1.6744781 0.12609009
-0.61348653 3.005451 0.1256807
0.36216831 3.0359089 0.12527139
0.25870231 3.0765519 0.1264995
1.502444 2.8787949 0.1330497
1.582119 2.8814681 0.1346872
1.445806 2.918807 0.133459
0.4514555 3.2056501 0.1326403
-2.5618069 2.306447 0.1412373
-2.5707209 2.4148309 0.1445124
-2.5899079 2.5391321 0.1486062
1.501924 3.2023151 0.14492179
-2.5722599 2.613389 0.1502438
-2.566746 2.7021091 0.1527001
0.1738015 2.739882 0.1591786
0.2300435 2.735734 0.1591786
-0.0025599629 2.745388 0.1591786
-0.1574658 2.750869 0.15975741
-0.099116057 2.7535889 0.15975741
-0.049716879 2.7549241 0.15975741
0.05607865 2.754802 0.15975741
-2.5308969 2.776413 0.15392821
-2.299736 3.0836461 0.1576127
-2.199224 3.0827651 0.1551564
-2.0871339 3.0876291 0.1527001
-2.3726261 3.091141 0.15965959
-2.017256 3.098021 0.1514719
2.0075901 3.1872649 0.1543376
2.1001911 3.187027 0.1563845
2.1951821 3.183233 0.1584314
1.842952 3.193244 0.1510625
1.9355609 3.196523 0.1531094
-2.8077281 -0.46038091 0.1649669
-2.7923131 -0.35881251 0.1632304
-2.86396 -0.083890177 0.1661246
-2.86516 -0.01270901 0.1661246
-0.59851789 2.7406969 0.1626516
-0.49035639 2.7418189 0.1614939
-0.38052079 2.7491291 0.16091511
-0.56305552 2.7583921 0.1632304
-0.3224113 2.7565479 0.16091511
-0.2167722 2.756846 0.1603363
0.28971481 2.750138 0.1603363
-0.4336949 2.761456 0.16207279
-0.27374771 2.7618051 0.16091511
0.1147142 2.762975 0.1603363
-2.5883019 2.9661889 0.1612971
-2.577688 3.0803969 0.16457219
-2.474848 3.087142 0.1621159
2.2873149 3.19174 0.1608877
-2.5968399 -1.431003 0.17191289
-2.579814 1.6730731 0.17828
0.363047 3.0432739 0.17770121
1.443558 1.40079 0.18527
1.413857 1.430763 0.18527
1.501183 2.87638 0.1881202
0.45107669 3.202961 0.18754131
-2.552238 2.297832 0.199118
1.585596 2.8878019 0.1910143
-2.5612881 2.4059701 0.2037486
0.28938809 2.7470369 0.2072271
1.500664 3.1996281 0.2049063
1.586393 3.202626 0.2072216
5.114747 -1.587708 0.2194296
5.1281352 -1.4731081 0.21861079
5.17314 -1.385668 0.2194296
5.1817851 -1.27158 0.21861079
5.1735811 -1.1759681 0.2173827
-2.8144031 -0.4614754 0.2139602
-2.800739 -0.4199045 0.2124639
-2.7990551 -0.35967889 0.2117158
-2.5948639 2.5439911 0.2106946
-2.577105 2.6183119 0.21300989
-2.5645931 2.699842 0.2159041
-0.59997058 2.747349 0.2109677
-2.5287731 2.7740829 0.21764059
0.2364687 2.812145 0.2117158
0.181181 2.8562169 0.2147083
-0.0027244489 2.921788 0.2191969
0.059465639 2.9211841 0.2191969
-2.203176 3.088306 0.21995591
-2.015563 3.095422 0.21416759
-2.096565 3.1015799 0.2170617
2.0059061 3.1845911 0.2182194
1.846396 3.1992109 0.21416759
1.933937 3.193841 0.21648289
-2.6026449 -1.434203 0.22293749
1.418432 1.435392 0.2204539
-0.4595077 2.925813 0.2221894
-0.6003142 2.9409211 0.2251818
-2.592694 2.9712231 0.2286384
-0.053619299 2.9711649 0.22293749
-2.364557 3.0806279 0.2251654
-2.3037741 3.089062 0.22342891
-2.4790161 3.0923409 0.22979601
2.193341 3.180562 0.2240077
2.2853961 3.1890621 0.22748069
2.1039219 3.1926889 0.2216924
-2.576905 1.671187 0.23041859
0.3650001 3.0596471 0.23116671
-2.575525 3.077812 0.2326902
1.527173 2.9261789 0.2476252
0.45195881 3.209224 0.2431365
-2.796519 0.095712937 0.25772709
-2.8137381 0.1562283 0.25956139
1.422572 1.439582 0.25591171
-2.556772 2.301913 0.25809881
-0.59699613 2.7337289 0.25772709
0.28897819 2.743145 0.25405839
1.607805 2.928251 0.25061771
-2.810416 -0.4608216 0.26231301
-2.8066189 -0.42078611 0.26139581
-2.804966 -0.3604385 0.26047859
-2.551132 2.39643 0.26258749
1.584605 3.1990149 0.2678242
1.503206 3.205049 0.26557991
-2.6076801 -1.436977 0.27423629
-2.591938 2.541122 0.27231291
-2.574199 2.6153591 0.27530539
-2.5617011 2.6967981 0.27904591
-0.45731169 2.9118309 0.27148479
-0.6034469 2.9562681 0.27790499
-1.92676 3.099714 0.27380911
-2.0187321 3.1002879 0.27754971
1.844314 3.1956041 0.27680159
-2.5732551 1.668819 0.28249091
-2.53264 2.7783251 0.28203839
0.25615919 3.046309 0.28157371
0.3656626 3.0652001 0.28432521
-2.301177 3.0855789 0.28877139
-2.2006919 3.0848241 0.28428271
-2.0942011 3.098083 0.28054211
2.1015501 3.1890891 0.28652701
1.936922 3.19877 0.28054211
2.0142729 3.197876 0.28353459
1.4193161 1.436287 0.29020989
-2.5963271 2.9753859 0.29625249
-2.4762211 3.0888541 0.29700059
-2.3679631 3.0850649 0.29176381
2.2021899 3.1933949 0.29101571
2.2886281 3.193572 0.29475629
0.4513185 3.2046781 0.29808289
5.1238322 -1.471872 0.30909589
-2.8018301 -0.420068 0.3095043
-2.810039 -0.36109039 0.3095043
-2.7917459 0.095549613 0.3051604
-2.818862 0.1565128 0.3084183
-0.60021919 2.748487 0.30733231
0.29056799 2.7582359 0.30298841
-2.57902 3.081989 0.30148929
-2.80562 -0.46003529 0.3105903
-2.5531499 2.2986519 0.31642649
-2.60323 -1.434525 0.32470801
-2.5402601 2.3862171 0.32101241
-0.45653129 2.906862 0.32145011
1.58678 3.203407 0.329267
-2.5688641 1.665971 0.33448181
-2.5882659 2.537523 0.33385289
-2.577538 2.618751 0.33843869
-0.60440528 2.960963 0.33013791
0.36621609 3.06984 0.3377398
0.25905389 3.080734 0.3377398
-1.9240299 3.0953231 0.33568719
1.754099 3.1946909 0.33568719
1.841702 3.191077 0.33935589
1.672443 3.2045259 0.33293569
-2.5580721 2.6929779 0.3421075
0.28998771 2.752728 0.34999689
-2.529052 2.774389 0.3457762
-2.2033579 3.0885601 0.3494449
-2.091234 3.093694 0.34394181
-2.015872 3.095896 0.34027311
2.01142 3.193346 0.3476105
1.9393359 3.2027559 0.344859
-2.7962339 -0.419229 0.35752371
-2.8044269 -0.36036921 0.35752371
-2.8060009 0.096037477 0.3550148
-2.823138 0.1567502 0.35752371
-0.60113698 2.752691 0.3562693
-2.30387 3.08919 0.35494801
-2.376734 3.096493 0.35953379
2.098572 3.184572 0.35127929
2.2047229 3.197068 0.35769951
0.4519347 3.209053 0.35402951
-2.8098061 -0.46072179 0.36003271
-2.592649 2.9711709 0.3632026
-2.4789419 3.092248 0.3650369
2.2853861 3.1890481 0.36136821
-2.606719 -1.436448 0.37634081
-2.55618 2.3013811 0.37574911
-2.5817571 3.0852599 0.37053999
-2.5637331 1.662644 0.3863765
-2.54317 2.3889511 0.381179
-0.60716659 2.9744909 0.38386759
0.36430949 3.053858 0.3888855
-2.5909481 2.5401521 0.39638269
0.29036081 2.7562699 0.39832729
-0.54843062 3.066539 0.39390329
0.25853661 3.0745809 0.39013991
-1.9312429 3.106926 0.39964059
1.669589 3.1990581 0.3942107
1.75589 3.197953 0.39855471
1.588485 3.2068479 0.3909528
5.1276388 -1.472965 0.40024021
-2.803375 -0.45966709 0.40828541
-2.809411 -0.4212046 0.40828541
-2.8078251 -0.3608059 0.40686291
-2.8094699 0.096156217 0.40401769
-2.8166749 0.1563914 0.40544021
-2.573139 2.6142819 0.40072659
-2.54686 2.681175 0.40398449
-0.60609663 2.7754011 0.40828541
-2.0932319 3.0966511 0.4083285
-2.0178571 3.098943 0.40398449
1.930877 3.1887879 0.40724251
1.843528 3.194241 0.40289861
-2.5314331 2.7770009 0.41050041
-2.282109 3.0600121 0.4170163
-2.2053709 3.091382 0.41484439
2.007987 3.187896 0.4115864
2.100461 3.187438 0.4170163
-2.609422 -1.437937 0.42820179
-2.378731 3.0990951 0.42679009
2.2009611 3.191613 0.42353219
2.287277 3.1916859 0.42896211
-2.56617 1.664224 0.43958259
-2.551075 2.2967839 0.43404639
-2.5882239 2.9661009 0.43004811
-2.5837309 3.0876191 0.4398219
-2.4809289 3.094727 0.43330601
-2.5453219 2.3909719 0.4415732
0.29064539 2.7589719 0.44687879
-0.62359369 3.0549669 0.44811821
0.3646481 3.0566959 0.44242781
-0.55066037 3.0790069 0.44954079
-0.4837555 3.0802059 0.44811821
0.1955079 3.082073 0.4438504
0.25960359 3.08727 0.44527301
-2.8058779 -0.4600777 0.458011
-2.8119199 -0.42158091 0.458011
-2.8103671 -0.3611325 0.45642069
-2.812083 0.096245639 0.4532401
-2.8192599 0.1565349 0.45483041
-2.585773 2.535078 0.4578813
-0.6066379 2.77788 0.458011
-0.74540722 3.09886 0.45807639
1.670844 3.2014639 0.4566268
-2.5680001 2.609061 0.46289909
-2.555439 2.6902061 0.46917149
-2.0138271 3.0927539 0.46666259
-1.927386 3.1007209 0.46164471
0.45138001 3.2051139 0.46518931
1.757158 3.200263 0.46164471
1.849764 3.2050469 0.467917
-2.6151769 -1.3692501 0.47550449
-2.526377 2.771455 0.4741894
5.6675272 2.77917 0.47355509
5.6412215 2.7874517 0.47205886
5.6547351 2.8274741 0.47430331
-2.2009671 3.0852079 0.47920719
-2.0946081 3.098686 0.4729349
2.0092649 3.189924 0.47669831
1.9372981 3.1993921 0.4729349
-2.611331 -1.438989 0.48027551
-0.59631437 2.9213259 0.48027551
5.66118 3.0107391 0.48103631
-2.301276 3.085712 0.48673409
2.1017251 3.1893561 0.48297071
-2.5595429 1.659927 0.49140769
-2.559948 2.3047731 0.4950639
-0.2168429 2.757746 0.49387911
-0.099153519 2.7546301 0.49212161
-0.049735669 2.755965 0.49212161
-0.32364359 2.7670839 0.49739429
-0.27382299 2.7625649 0.4956367
-0.15808789 2.7617371 0.49387911
0.29084069 2.7608249 0.4956367
-0.002588602 2.7761011 0.4956367
0.056700911 2.7853701 0.49739429
-2.5895779 2.9676521 0.49802431
0.364876 3.0586059 0.4961786
0.12818819 3.0875061 0.49776891
0.19562811 3.083967 0.49776891
0.2597605 3.0891371 0.49935931
-2.37398 3.092905 0.49300641
2.2021971 3.1934061 0.4904975
2.288487 3.1933751 0.49676979
-2.8135669 -0.4218277 0.50793982
-2.812047 -0.3613483 0.50618219
-2.803993 0.095968783 0.50090939
-2.8308079 0.15717611 0.50618219
-2.5394959 2.385499 0.5007543
-0.60489279 2.7698891 0.50618219
0.1163851 2.80322 0.50090939
0.1782386 2.8098321 0.50266701
0.23674139 2.815388 0.50442457
-2.584938 3.089061 0.50931448
-2.4821801 3.096287 0.50178772
-2.826951 -0.46353289 0.51145488
-0.74348247 3.090858 0.5120818
1.671599 3.2029109 0.51924813
-2.6076541 -1.365311 0.52551562
-2.9074819 -0.30816561 0.52200037
-2.5869219 2.5362051 0.52067071
-2.5621221 2.6030891 0.52493852
-1.9281991 3.10203 0.52493852
0.45159131 3.206614 0.52162367
1.7579 3.2016129 0.52493852
-2.6124411 -1.4396 0.53254592
-2.5495901 2.6840479 0.53205138
-2.5272629 2.7724259 0.53916442
-2.095356 3.099793 0.53774178
-2.0146179 3.0939701 0.5306288
1.8504781 3.206284 0.53205138
1.937991 3.2005351 0.53774178
-2.5686989 1.6658649 0.54660648
0.29094601 2.7618251 0.544586
-2.2074251 3.0942609 0.5462774
2.0099411 3.1909969 0.54200959
2.102361 3.19032 0.54912257
-2.824049 -0.4233993 0.55998057
-2.8225911 -0.36270329 0.55805629
-2.814712 0.096335612 0.55228329
-2.831625 0.1572215 0.55613202
-2.5606749 2.3054271 0.55502027
0.3661586 3.0693581 0.55187923
-2.307843 3.0945179 0.55481303
2.208395 3.2023931 0.55908078
-2.8567171 -0.46841359 0.56767797
-2.8494649 -0.30201629 0.56190503
-2.540134 2.3860991 0.56138158
-0.61134827 2.799449 0.56190503
-2.5966661 2.975775 0.56761628
-2.374573 3.093677 0.56050342
-0.74594837 3.10111 0.56945503
2.2832489 3.1860659 0.56334847
-2.6167669 -1.370083 0.57922387
5.6335449 2.782865 0.57873952
5.6419988 2.7882335 0.5796566
5.4523559 3.0624249 0.57598788
-2.4826889 3.0969219 0.57046157
-2.621341 -1.444505 0.58692127
-2.587292 2.5365679 0.583646
5.6594982 2.775233 0.5805738
5.6556311 2.8279221 0.58240819
-2.5917251 3.097172 0.58041972
-1.928432 3.1024051 0.58841687
1.671851 3.203393 0.58205569
1.758112 3.2020011 0.58841687
0.45303789 3.216886 0.5800004
-2.5693569 2.61044 0.59000719
-2.5430059 2.6771171 0.59477818
0.28993621 2.752239 0.59162092
-0.05435859 3.012131 0.59076989
5.661952 3.0111499 0.59066278
-2.02019 3.1025269 0.59636861
1.850634 3.2065549 0.59636861
-2.8142481 -0.42192981 0.60834521
-2.822494 -0.36269081 0.60834521
-2.8147161 0.096335761 0.60207361
-2.8315611 0.1572179 0.60625458
-2.568783 1.6659189 0.60039163
-2.534039 2.77986 0.60591042
0.36615929 3.0693631 0.60616457
-2.1010039 3.1081469 0.60432011
2.015275 3.199465 0.60909098
1.9381 3.200716 0.6027298
-2.859024 -0.30302951 0.61461681
-2.553309 2.298795 0.61339438
-2.207459 3.0943091 0.61227173
2.1077969 3.19857 0.61704272
-2.5400021 2.3859749 0.62218231
-2.307786 3.0944419 0.6218136
-2.3804641 3.101352 0.62976521
-0.74587661 3.100812 0.62540787
2.202693 3.194124 0.62499422
-2.6208079 -1.444211 0.63970321
-2.6250119 -1.3744 0.63343161
-2.9433041 -0.48261121 0.63761258
-2.5834701 2.9606521 0.63294578
-2.4824541 3.0966289 0.63930708
2.2888551 3.1938879 0.63294578
0.45296901 3.216397 0.63695389
-2.579849 2.5292709 0.6450308
0.29088429 2.7612391 0.64299792
1.671597 3.2029049 0.6450308
-2.8215139 -0.36256489 0.65879083
-2.823576 0.096638992 0.65427852
-2.830611 0.1571652 0.65653461
-2.5598669 1.6601371 0.65224642
-2.568871 2.609946 0.65381873
-2.535691 2.669416 0.65733379
-0.05505218 3.050565 0.65224642
-2.5913689 3.096746 0.65043932
-1.928082 3.101841 0.6520611
1.7577929 3.2014191 0.6520611
-2.822906 -0.42322779 0.66104692
-2.86762 -0.30394059 0.66781533
-2.5267489 2.771863 0.66963679
0.3672052 3.078131 0.66269898
-2.1004729 3.107362 0.66963679
-2.0197511 3.1018519 0.66084898
1.850232 3.205857 0.66084898
1.942723 3.2083509 0.66963679
-2.545208 2.291502 0.67159188
2.0094769 3.1902609 0.67315203
-2.632376 -1.378255 0.68812048
-2.531944 2.3784051 0.68121362
5.6414413 2.7875597 0.68742532
5.4517188 3.062068 0.68308139
-2.3011479 3.0855401 0.68721259
-0.74557501 3.0995569 0.68151379
-2.212543 3.1014359 0.68018228
2.1125669 3.2058091 0.68545502
-2.627991 -1.448169 0.69488889
0.29071611 2.7596419 0.69242972
5.6766171 2.783628 0.69068331
5.654871 2.8275421 0.69068331
-2.569566 2.9447179 0.69775808
-2.373616 3.0924311 0.69600052
2.2019451 3.1930399 0.69248527
0.45276061 3.2149169 0.69405699
-2.8217731 0.096577287 0.70453513
-2.8384581 0.15760089 0.70937729
-2.5665619 1.664479 0.7084257
-2.5716641 2.521246 0.70622993
5.661067 3.010679 0.7004571
-0.055196159 3.058543 0.7084257
2.2937391 3.2007041 0.70303082
-3.0571849 -0.50128418 0.7174502
-2.8305991 -0.42438129 0.71421951
-2.567605 2.608659 0.71777588
0.36697459 3.0761981 0.7174502
-2.487628 3.1030829 0.71006107
-1.927145 3.100333 0.71585149
1.761662 3.2084651 0.71777588
1.675374 3.2101419 0.71007848
-2.8752379 -0.304748 0.72148269
-2.5291071 2.2770059 0.72750562
-2.541163 2.6751759 0.72354889
-2.5902319 3.0953879 0.72060663
-2.018697 3.100234 0.72547323
1.849267 3.204185 0.72547323
-2.5319541 2.7775731 0.73701918
-2.099304 3.105633 0.73509479
1.941642 3.2065649 0.73509479
-2.6257851 -1.446954 0.74811459
-2.6302509 -1.377142 0.74085128
-2.537411 2.3835411 0.74422991
0.29146761 2.766777 0.74457681
-2.4968939 2.8614359 0.74471653
-2.430871 2.904948 0.74279219
-2.387666 2.97839 0.7485652
-2.216922 3.107573 0.7485652
-0.74732047 3.1068139 0.74001157
2.013562 3.1967461 0.74086791
-2.8190761 0.096484981 0.75491822
-2.3055799 3.0914831 0.75626248
2.111264 3.203831 0.75241393
0.45377061 3.2220891 0.75354832
-3.0351591 -0.49767271 0.76748329
-2.845324 0.1579821 0.76267421
-2.56425 1.662979 0.76264107
-2.5697219 2.5193419 0.76931632
-0.0553215 3.0654881 0.76506221
-2.3720601 3.090404 0.76395983
2.2061 3.1990659 0.76203549
-2.8722579 -0.30443221 0.7730155
-2.5586929 2.599606 0.77976888
0.3677786 3.082938 0.77474648
-1.843722 3.113261 0.77349728
1.674083 3.20767 0.77349728
2.297894 3.206502 0.7735815
-2.5340509 2.2814569 0.78964651
-2.539078 2.672982 0.78813112
-1.930782 3.106184 0.78185952
1.7649601 3.214473 0.78394997
-2.5973711 -1.431296 0.79369819
-2.627295 -1.375595 0.79369819
-2.9265471 -0.47986349 0.79369819
-2.761029 -0.45272371 0.79991388
0.29110959 2.7633779 0.79441631
5.6652789 2.7780681 0.79784238
5.6390681 2.7863877 0.79533345
-2.0223629 3.105864 0.79231209
-0.74881518 3.113028 0.79895729
1.852625 3.2100041 0.79231209
-2.825089 0.096690781 0.80816048
-2.5349441 2.3812239 0.80543941
-2.5363419 2.782387 0.80485529
5.661324 2.8307691 0.80035138
-2.1029711 3.111058 0.80276477
1.939968 3.2038009 0.80067432
2.0169971 3.2021999 0.80903637
-2.8415959 0.1577751 0.81365818
-2.569236 1.666212 0.81955159
5.6585188 3.0093241 0.81038707
-0.054730751 3.032753 0.81179547
-2.2092271 3.096787 0.81321752
0.45327559 3.218574 0.81106281
-2.5460939 2.917819 0.82785118
0.06271711 3.080909 0.82472217
0.12823141 3.088547 0.82730758
-2.3092699 3.096432 0.82576072
2.203995 3.196013 0.82994169
2.1146989 3.209043 0.82157958
-2.5669889 2.5166631 0.83251297
0.36845729 3.0886271 0.83247823
-2.381691 3.1029501 0.83621329
-1.8417341 3.1099041 0.83702528
1.6767859 3.2128479 0.83928138
-2.52373 2.2721651 0.84737903
-2.5558791 2.596746 0.84379357
0.29166031 2.768605 0.84726489
0.2332726 2.7741351 0.84726489
-0.053086489 2.9416411 0.84114659
0.060075112 2.951124 0.84389549
0.1228446 2.958801 0.84664428
-2.483362 3.0977609 0.84875649
-1.928645 3.102746 0.84604979
1.758305 3.202353 0.84604979
2.301311 3.211271 0.84457552
-2.542923 2.6770301 0.85507429
-2.0253689 3.110481 0.8595866
-0.75005579 3.118186 0.85833162
1.850509 3.2063379 0.85733038
-2.830102 0.096862368 0.86182272
-2.846509 0.1580479 0.86764592
-2.5246201 2.371526 0.8643266
-2.598155 3.104856 0.86548078
1.9377 3.2000549 0.866355
-2.5399051 2.7862949 0.87312341
-2.105953 3.1154699 0.87086731
2.0197761 3.2066121 0.87763572
0.45398581 3.2236171 0.87125832
0.055584379 2.7305219 0.88207817
0.1136874 2.7382441 0.88515162
0.17410091 2.7446029 0.88822508
0.2304398 2.740448 0.88822508
-2.5236831 2.8921361 0.88891631
-2.212213 3.1009719 0.88214791
2.1120861 3.2050779 0.88891631
-2.563462 2.5132051 0.89580071
0.2901125 2.753912 0.89437193
-2.312212 3.1003749 0.89568472
-1.78225 3.1050861 0.89337963
0.37014821 3.1028011 0.89337468
-2.6273551 -1.375626 0.90258461
-2.5198619 2.268683 0.907453
-2.384573 3.1067059 0.90696537
-1.839177 3.105587 0.90064281
2.2067461 3.200002 0.90019703
1.6789351 3.2169659 0.90548497
-2.622566 -1.4451801 0.91131932
-2.840904 0.1577366 0.9189595
-2.559082 2.5999999 0.9103272
-2.532567 2.666127 0.91759038
-1.931034 3.10659 0.91274828
-0.74654239 3.103579 0.91261661
1.760484 3.20632 0.91274828
2.2983091 3.2070811 0.91373378
-2.842063 -0.42609999 0.9281798
-2.86393 0.046724278 0.92510629
-2.4861851 3.1012831 0.92050219
-2.027709 3.114074 0.92727482
1.857522 3.2184889 0.92727482
-2.823729 1.666139 0.93735617
-2.534692 2.380986 0.93072098
0.055656988 2.7340879 0.9347527
0.1134407 2.732301 0.9347527
-2.1082439 3.1188581 0.93938023
1.944885 3.21192 0.93695909
0.45454079 3.2275579 0.93185848
-2.9297631 -0.25034451 0.94969392
-2.9343541 -0.18906531 0.94969392
-2.9377251 -0.12631419 0.94969392
-2.939178 -0.086093463 0.94969392
-2.9308939 -0.01300058 0.94662052
-2.820636 1.7456059 0.94835162
0.2307298 2.743896 0.94122148
0.29046381 2.757247 0.94769043
-2.5426331 2.789288 0.94180119
-0.0027240929 2.921406 0.94354701
-2.607115 3.1155629 0.94080728
2.0218921 3.2099719 0.94664341
-2.6302719 -1.377154 0.95891422
-2.55914 2.5089669 0.95915967
-0.5975799 2.736402 0.95739383
-2.5134051 2.880358 0.95390671
-2.214473 3.10414 0.95148557
-1.784067 3.1082499 0.95915967
0.3716993 3.115803 0.95499271
2.1088221 3.2001259 0.95632768
-2.616982 -1.442103 0.96506113
-2.3201959 3.1110809 0.96843308
-1.845894 3.1169291 0.96950108
1.676056 3.2114489 0.96950108
-2.853272 0.15842339 0.97680038
-2.5223501 2.2709219 0.9703424
-2.554657 2.595504 0.97467172
-0.0026470111 2.8387411 0.97033149
-2.386677 3.109447 0.97811753
-0.74728882 3.106683 0.97246212
2.208775 3.202945 0.97085422
-2.8447969 -0.42650989 0.98326927
-2.54144 2.675468 0.98759842
-0.33637241 2.875912 0.98973811
-0.1643934 2.871891 0.98326927
-1.937881 3.117604 0.98242772
2.300252 3.2097919 0.98538083
1.766726 3.2176881 0.98242772
-2.536834 2.3829989 0.99508202
-0.052416328 2.904506 0.99297261
-0.1048381 2.9125559 0.996207
-2.4881971 3.1037929 0.99264401
-2.029376 3.1166329 0.99535441
1.849391 3.204401 0.99018371
0.4562732 3.2398591 0.9957546
-2.3875799 -1.450503 1.008167
-2.8508229 1.682127 1.007401
-2.80655 1.7368881 1.0044889
-0.55873168 2.73721 1.008167
-0.38045251 2.748636 1.0013781
-2.538012 2.7842181 1.008281
-0.17728721 3.097141 1.001942
-0.1119348 3.1097131 1.005016
-2.104425 3.113209 1.0056961
-0.24466971 3.1116381 1.0080889
-0.056146801 3.1112199 1.005016
1.946378 3.2143869 1.0056961
-2.610554 -1.438561 1.0188479
-2.64063 -1.3825769 1.0188479
-2.696368 1.5909899 1.011163
-0.59804231 2.738519 1.011562
-2.6089499 3.1177559 1.014434
-0.30880481 3.1154921 1.011163
-1.695742 3.1273029 1.017073
0.3731083 3.127614 1.01731
2.023339 3.2122681 1.016037
-2.818589 -0.4225806 1.0285341
-2.8363161 0.15748189 1.02514
-2.5474939 2.216944 1.027782
-2.554018 2.5039461 1.02257
-2.508754 2.8750279 1.021208
-2.2160001 3.106281 1.021208
-1.780496 3.1020291 1.02257
2.1155379 3.2103169 1.028964
1.596126 3.222275 1.0280679
-2.523972 2.272383 1.033605
-2.315815 3.105207 1.03672
-1.842146 3.1106009 1.033566
-0.81831348 3.110564 1.038824
-0.74999952 3.1179521 1.03575
1.672653 3.2049301 1.033566
-2.556179 2.5970509 1.0418119
-0.33546609 2.8681641 1.042112
-2.3879941 3.1111619 1.049646
2.2100749 3.204829 1.041891
-2.53811 2.384198 1.059809
-2.542779 2.676878 1.055557
-0.49038681 2.7419889 1.05897
-0.43072259 2.7425311 1.055416
-0.38063169 2.7499299 1.055416
-1.938954 3.1193321 1.050059
1.767705 3.219471 1.050059
2.3014369 3.211446 1.057402
0.4551788 3.2320881 1.054191
-2.396585 -1.455974 1.066077
-0.55896962 2.7383749 1.062523
-0.60027772 2.7487559 1.069631
0.1964844 3.097466 1.060896
-2.4954331 3.112819 1.067744
-2.025116 3.1100919 1.061054
-0.24477731 3.113008 1.0673651
1.855147 3.2143731 1.061054
-2.619755 -1.4436311 1.079452
-2.6499369 -1.38745 1.079452
-2.539077 2.785387 1.077547
-2.1053369 3.114557 1.074798
-1.687273 3.111685 1.077278
-0.30893499 3.116806 1.070599
0.373252 3.128819 1.077068
1.947221 3.2157791 1.074798
-2.554925 2.5048349 1.088925
-2.603729 3.111517 1.0858409
2.0138609 3.197221 1.080296
-2.548331 2.2176721 1.091072
-2.5247221 2.2730579 1.097219
-2.5096459 2.87605 1.091292
-0.74799508 3.1096189 1.09324
-2.2223711 3.115211 1.09404
-1.7858911 3.111428 1.091836
-0.81852692 3.1113751 1.099709
1.592401 3.2147551 1.091836
2.116209 3.2113349 1.099538
-2.5568349 2.597717 1.109306
-2.316463 3.106076 1.107785
-1.847571 3.119761 1.103482
1.677579 3.2143669 1.103482
-1.934322 3.1118791 1.115129
2.210639 3.2056479 1.113282
1.763481 3.2117791 1.115129
0.4552584 3.2326541 1.115881
-2.5454481 2.3910911 1.127954
-2.5498459 2.6843181 1.126775
-2.3885159 3.1118431 1.121529
-0.056178171 3.1129589 1.12358
-0.002903179 3.1134641 1.12358
0.063366733 3.1128211 1.12358
0.1291548 3.110785 1.12358
0.19769859 3.1166079 1.1269751
0.26167369 3.1118889 1.1269751
1.855446 3.2148919 1.129686
2.3018579 3.212033 1.129775
-2.6197121 -1.443607 1.137149
-2.641613 -1.383092 1.133595
-2.030663 3.1186099 1.132598
-0.3098824 3.126364 1.133764
-0.2455347 3.1226399 1.1303689
-2.5606821 3.0600741 1.140771
-2.4957709 3.113241 1.140771
-2.1108949 3.1227801 1.147156
-1.691926 3.1202669 1.146394
1.507202 3.213568 1.146394
1.9523619 3.2242701 1.147156
-2.5554161 2.2238369 1.1579289
-2.554956 2.5048659 1.155615
-2.5457311 2.792686 1.150067
1.3712569 3.08727 1.154695
1.783762 3.0906861 1.152541
-1.785887 3.1114221 1.1586879
-0.75014949 3.1185751 1.1575249
1.717482 3.1280029 1.152541
2.1561501 3.1266329 1.1558909
1.651064 3.163564 1.152541
2.089848 3.1713331 1.1558909
1.58395 3.197695 1.152541
2.0191 3.205538 1.152979
-2.5245891 2.272938 1.161163
-2.5159819 2.883311 1.164625
-0.35508159 3.035872 1.162024
2.7046449 3.063097 1.168259
1.442474 3.0755601 1.161163
1.863138 3.0769179 1.161762
2.3000319 3.0703111 1.167537
3.055479 3.0920129 1.163401
2.22349 3.1026781 1.161714
2.6270511 3.104753 1.162761
-2.222384 3.1152301 1.164625
2.982671 3.149013 1.160816
2.554626 3.152246 1.160013
2.4871769 3.2057331 1.160013
2.9349151 3.2328191 1.1685719
2.438396 3.255013 1.162761
2.877219 3.258543 1.163401
-2.5566161 2.5974951 1.177129
3.1473961 3.0541489 1.173743
1.932309 3.067749 1.170982
1.524642 3.0779619 1.174101
-2.3163331 3.105902 1.179183
-1.847464 3.11958 1.170982
1.063219 -1.806584 1.1890841
1.090961 -1.779774 1.18415
2.3809259 3.068785 1.1820951
1.606755 3.078665 1.187039
2.026396 3.0750439 1.189422
2.7919121 3.0753 1.187501
-1.939127 3.1196091 1.186349
1.564486 -1.8020149 1.1975091
1.2509381 -1.7931139 1.191636
1.418593 -1.79258 1.196097
2.0522361 -1.797326 1.199311
1.733487 -1.783977 1.195847
1.888127 -1.7849129 1.195268
1.583176 -1.773653 1.193024
1.4618829 -1.757455 1.196097
2.08442 -1.759899 1.199311
2.260144 -1.750277 1.1992821
1.7707551 -1.746991 1.195847
1.925294 -1.744758 1.195268
2.4397049 -1.744553 1.198864
1.620719 -1.739414 1.193024
1.954623 -1.7118371 1.195268
2.289592 -1.711576 1.1992821
1.807626 -1.708812 1.195847
2.1139801 -1.70976 1.195286
2.4762101 -1.6923389 1.198864
1.9922169 -1.682052 1.199447
2.1568789 -1.670307 1.199311
2.2116079 -1.581449 1.195286
2.5454941 -1.586217 1.198864
2.2447 -1.534116 1.195286
2.113507 -1.511299 1.195268
2.271719 -1.493816 1.195286
2.152631 -1.471192 1.199447
-2.5449281 2.3906021 1.193508
-2.549422 2.683871 1.195569
-2.388237 3.11148 1.193741
-0.30978459 3.1253769 1.194006
2.23699 -1.809249 1.207019
2.608402 -1.782684 1.201113
2.834007 -1.766003 1.205048
2.6397979 -1.735854 1.201113
2.871037 -1.70514 1.205048
3.0872819 -1.690967 1.2032109
2.3402989 -1.673471 1.207019
2.681386 -1.670897 1.201113
2.893954 -1.6659499 1.205048
3.352948 -1.656413 1.207863
2.3753159 -1.623384 1.207019
2.928688 -1.604102 1.205048
3.378895 -1.58049 1.20479
2.3962021 -1.575673 1.20315
2.7381051 -1.576233 1.201113
3.1644199 -1.563277 1.206445
2.5867391 -1.536293 1.202576
2.9538381 -1.537033 1.201654
2.4339521 -1.51671 1.20315
2.770968 -1.5177161 1.201113
2.6073861 -1.500982 1.202576
3.402914 -1.504712 1.2017159
3.188472 -1.491419 1.2032109
2.9938149 -1.478995 1.205048
2.4736841 -1.469148 1.207019
3.3036349 3.0720019 1.207352
2.4997039 3.084476 1.208299
1.698716 3.0938251 1.206445
-2.0302711 3.1180091 1.2017159
1.243441 -1.8514481 1.215564
2.5370491 -1.6682889 1.213711
2.748569 -1.632405 1.215328
2.827534 -1.47131 1.211774
3.470685 -1.467873 1.217083
-2.5473249 2.2167959 1.218626
-2.5663121 3.066802 1.217033
1.778461 3.081502 1.216149
2.1285009 3.0865381 1.210937
2.922416 3.085398 1.21499
-2.489291 3.1051569 1.21121
-1.691433 3.1193581 1.212914
-0.74982113 3.1172099 1.218881
-2.1103511 3.1219749 1.217083
1.4183511 -1.860085 1.223914
2.0625911 -1.668197 1.220343
2.2289741 -1.666261 1.2234581
3.189743 -1.659786 1.229087
2.361892 -1.471806 1.2234581
2.6875451 -1.472023 1.224846
-2.523567 2.272018 1.225415
-2.5541029 2.504029 1.222618
-2.545043 2.79193 1.220157
2.2116899 3.0862119 1.2263041
2.6077521 3.081944 1.22868
-1.789976 3.118546 1.229087
3.0411661 3.077529 1.23698
3.4477129 3.071563 1.235791
1.867365 3.083899 1.232321
-2.216116 3.1064439 1.232451
1.7694499 -1.899037 1.24784
3.3318529 -1.47329 1.245259
-2.2832899 -1.45462 1.245419
-1.000404 2.52543 1.249598
-2.5555151 2.5963769 1.245259
-2.5339119 2.9038589 1.2447439
2.716466 3.0764849 1.249061
1.9416161 3.082525 1.245259
2.3163531 3.092097 1.247818
-1.85154 3.1264629 1.2420239
2.277221 -1.497434 1.253777
2.58933 -1.4905879 1.253443
3.1610031 -1.47857 1.259361
-1.005861 1.698471 1.2565989
-0.87157542 1.771134 1.2565989
-1.0146509 2.176265 1.256366
-0.88432568 2.2324009 1.256366
-1.019025 2.2857201 1.255815
-2.5435159 2.389276 1.259361
-1.009914 2.400882 1.2521729
-0.90108877 2.7103081 1.255654
3.160253 3.0666251 1.258971
3.5546579 3.0815711 1.259059
1.614615 3.093724 1.259361
-2.315418 3.1046751 1.250891
-1.9382139 3.11814 1.254962
-0.43159381 3.118114 1.258251
2.991817 -1.478008 1.2686321
-0.93559408 1.167066 1.266578
-0.88075328 1.624294 1.266311
-0.87855202 1.706073 1.267857
-1.03132 1.796793 1.269966
-0.8754409 1.877682 1.269966
-0.87328261 1.958812 1.265121
-1.019426 1.979638 1.263093
-0.987005 2.0056989 1.2680269
-0.90668851 2.0337429 1.263093
-0.86674482 2.060524 1.2680269
-0.98323607 2.108886 1.268207
-0.89879262 2.1367121 1.2634211
-0.97727329 2.3232861 1.2647851
-0.87490439 2.3542061 1.2603
-0.97253722 2.4550829 1.269504
-0.86697888 2.4943149 1.269504
-2.554637 2.6893611 1.2679
-1.001344 2.694432 1.263703
2.0306211 3.0814559 1.261431
2.80369 3.088274 1.269441
2.3974559 3.0900919 1.263185
-2.3929451 3.1176131 1.2693321
-0.55744737 3.1169569 1.265674
-0.48983189 3.118896 1.261963
-1.610577 3.1276031 1.269544
2.4950759 -1.481853 1.275777
-1.027971 1.178053 1.2790101
-0.99841487 1.1931289 1.272679
-0.91539598 1.19261 1.2730401
-1.026403 1.892903 1.270202
-0.98975271 1.922015 1.275283
-1.03513 2.1034939 1.277778
-0.95103657 2.1332181 1.272992
-0.99216431 2.2254701 1.27491
-0.94476449 2.246002 1.27491
-0.9348402 2.35992 1.273755
-0.96524888 2.597307 1.274673
-0.94974679 2.73244 1.271752
1.6976759 3.091929 1.272938
-1.690349 3.117358 1.279727
-2.034344 3.124264 1.274369
-0.6815083 3.1207221 1.276809
-0.63699812 3.1206341 1.273098
2.858314 -1.487327 1.287944
-2.383635 -1.4481061 1.2830319
-0.97461998 1.164694 1.285964
-0.89295578 1.1633739 1.285181
-1.007848 1.755901 1.28882
-0.92689341 1.799948 1.28882
-0.99566442 1.8362139 1.280418
-0.91717517 1.967196 1.280364
-2.545465 2.215178 1.282846
-2.5523579 2.5023179 1.289911
-0.91568261 2.6344359 1.2830319
2.9144001 3.0769351 1.289822
3.302242 3.0707071 1.2892081
1.781998 3.08763 1.286517
2.498421 3.0828929 1.281626
2.132647 3.092551 1.284072
-2.4939361 3.1109519 1.287773
2.382489 -1.484641 1.291391
2.7174599 -1.488408 1.299867
3.7094641 -1.487816 1.290846
-0.96908242 1.787191 1.29419
-0.9679957 1.879765 1.296097
-0.93356383 1.897101 1.296097
-0.96595579 1.962925 1.290525
-0.96297669 2.065433 1.292697
-2.528594 2.2765441 1.293507
1.463443 2.4168341 1.299749
1.49122 2.7159181 1.299867
-2.549855 2.79721 1.293775
-2.571013 3.0724199 1.293919
3.708061 3.079947 1.2900831
2.2102771 3.0842409 1.2970099
