# .PCD v0.7 - Point Cloud Data file format
VERSION 0.7
FIELDS x y z
SIZE 4 4 4
TYPE F F F
COUNT 1 1 1
WIDTH 1597
HEIGHT 1
VIEWPOINT 0 0 0 1 0 0 0
POINTS 1597
DATA ascii
-0.74213803 4.6404519 0.75699037
-1.639117 5.0042901 0.75682181
-2.1039009 -6.726727 0.76995981
0.49610409 -4.273273 0.76806122
4.3457651 -4.240201 0.76773518
4.4415779 -4.1542668 0.76898962
4.4945722 -4.0673618 0.76648068
4.5546961 -3.969785 0.76397169
4.6452932 -3.8788769 0.76522619
4.7107329 -3.767447 0.76271731
-6.2332358 -3.13783 0.76235801
-6.32026 -3.0740399 0.76778787
4.6990948 -0.53133959 0.76176143
-3.447999 0.9599331 0.76513523
-3.7035551 1.176682 0.76203549
-4.035893 1.489478 0.76806122
-2.538089 4.0486102 0.76971298
-0.35217199 4.2875352 0.76806122
-1.976671 -6.8169751 0.77538967
0.080384828 -4.787601 0.7713033
0.68167359 -4.2775321 0.77333391
4.8290381 -3.729301 0.77149862
4.9072609 -3.625752 0.77149862
5.3128681 -3.020246 0.77275312
-6.4378481 -2.96504 0.77430367
5.399786 -2.9249671 0.77651638
-4.4423022 1.8393 0.77448392
-4.4176788 1.922557 0.77607417
-3.9516799 2.7905171 0.77925491
-3.897114 2.8327751 0.77607417
-3.6293011 3.1385369 0.77289361
-2.3783619 4.1785731 0.77448392
-2.315825 4.2473192 0.77925491
-0.88236898 4.7564888 0.77925491
-1.385782 5.2032971 0.773893
-1.841827 -6.916379 0.78190559
-0.1229491 -4.885457 0.78720647
-0.019038411 -4.8869672 0.78720647
0.322382 -4.3984628 0.78739452
0.4122498 -4.3513999 0.78036422
1.7570291 -3.5757589 0.78127879
-6.5628471 -2.8311591 0.78081959
5.4890089 -2.8196349 0.78027987
5.5918908 -2.7248831 0.78655219
-0.4315013 4.369318 0.78387928
-1.634868 5.2342792 0.78811902
-1.521543 5.2477279 0.78527367
-1.6337301 -7.1317372 0.7992813
-1.751456 -7.0525389 0.79385138
0.2650753 -4.4515982 0.79618239
0.63781363 -4.0023079 0.79474908
1.709304 -3.299576 0.79440272
0.927086 -3.054528 0.79653633
5.6746759 -2.6198189 0.79031563
-3.3224649 0.84908009 0.79415882
-3.849251 1.329666 0.79859781
-2.104682 4.4761152 0.79674828
-0.96929091 4.8402691 0.79515803
-0.2305485 -4.9705138 0.80151927
5.9517622 -2.35039 0.80913258
-3.586138 1.0804811 0.80067432
-4.2113318 1.637673 0.80672789
-0.228054 3.7384241 0.80067432
-0.53561687 4.4569478 0.80145508
-2.037024 4.5830412 0.80788058
-3.779125 -5.2619462 0.81916839
-3.8874891 -5.1824031 0.81916839
-3.9601941 -5.0516329 0.81164157
-4.0225248 -4.9894052 0.81038707
-4.1399779 -4.9183521 0.81289607
-4.2432151 -4.829567 0.81289607
-4.365787 -4.7595239 0.81665951
-4.4732308 -4.6586881 0.81665951
0.1691567 -4.5843401 0.81903088
-4.5738912 -4.5739422 0.81791389
-4.6738601 -4.4860778 0.81916839
-4.750453 -4.4048901 0.81916839
0.48208201 -4.1524911 0.81976551
0.56440622 -4.1024861 0.81206822
1.6011159 -3.439898 0.81112689
6.056025 -2.244489 0.81665951
4.5442128 -0.3533034 0.81375819
4.557909 0.01262023 0.81375819
4.1082101 0.59407449 0.8139925
-3.7700629 2.5439501 0.81200057
-0.62854218 4.5441971 0.81903088
-1.978568 4.6515241 0.81424183
-1.103775 4.9632039 0.81901282
-3.677815 -5.345295 0.82042289
0.077178814 -4.5966558 0.82078838
-4.8547668 -4.3195591 0.82167733
-4.9624839 -4.2565751 0.8266952
0.39890981 -4.2105918 0.82938713
-5.0617528 -4.1536918 0.8279497
-5.4545898 -3.6224229 0.8279497
-5.4622741 -3.5200729 0.82167733
5.9446268 -2.5999839 0.82042289
6.0281329 -2.531064 0.8266952
6.1301122 -2.126085 0.82042289
6.2030778 -2.0339301 0.82544082
4.5945592 -0.45459059 0.82430363
4.1977348 0.51695138 0.82938713
-3.4443829 0.95892638 0.82800072
-3.700021 1.175559 0.82994169
-4.1773319 1.919663 0.82078838
-1.895426 4.7392249 0.82219338
-0.01829333 -4.6957121 0.83836418
0.31203401 -4.2572789 0.83708447
-5.162086 -4.0604939 0.83045858
-5.2614059 -3.9804749 0.83422202
-5.3621001 -3.8946199 0.83798552
-5.4422741 -3.7817769 0.83798552
4.728621 -3.3421631 0.83221948
4.8039179 -3.2683229 0.83506459
4.8723068 -3.1835999 0.83648717
4.9735098 -3.0610001 0.83933252
6.3015671 -1.9198999 0.83296758
4.6657491 -0.065958463 0.8330915
6.6737719 3.7687945 0.83729059
6.5603251 3.865973 0.83186072
-1.821169 4.852706 0.83491588
-2.76004 -5.225111 0.84929073
-2.832463 -5.152348 0.84502292
-0.1186327 -4.713943 0.84187943
0.25606811 -4.300334 0.84478182
5.0319161 -3.002825 0.84217763
4.6953602 -0.53091723 0.84363699
4.7025728 -0.168524 0.84012181
-4.041501 1.4915479 0.84478182
6.8074698 3.6284671 0.84272051
6.7279592 3.733047 0.84054852
6.7370772 3.737103 0.84163451
-0.35266131 4.2934918 0.84478182
-0.74311239 4.6465449 0.84012181
-1.730397 4.9276848 0.84127718
-1.637958 5.0007501 0.84763849
-1.2399631 5.0733471 0.84127718
-2.5705709 -5.397727 0.85924882
-2.666744 -5.317667 0.85498101
-0.22213119 -4.789042 0.85593998
0.16138311 -4.3736658 0.85825211
0.5437879 -3.9526179 0.85293758
0.629444 -3.9497881 0.85502809
1.7595561 -3.5809021 0.85293758
0.92583352 -3.050401 0.85316092
-3.3183341 0.84802443 0.85464227
-4.4477139 1.8415411 0.85945523
-3.8326819 2.912729 0.85945523
-3.760823 3.004936 0.85945523
-3.7012811 3.0625601 0.85769761
-3.6411991 3.1488259 0.85945523
-0.2254145 3.6951549 0.85733038
-2.5412459 4.0536461 0.85418242
-2.381259 4.1836629 0.85945523
-0.29126731 -4.8346472 0.86472791
0.074462831 -4.434896 0.86979812
0.46687609 -4.021513 0.86548078
4.5517321 -3.967201 0.86778438
4.6346588 -3.869998 0.86778438
4.7076812 -3.7650051 0.8663618
-3.5912709 1.082028 0.8686111
-4.4230242 1.924883 0.86121267
-3.9563949 2.7938471 0.86472791
-3.901829 2.8362019 0.86121267
-2.313875 4.2437439 0.86297029
-0.4310967 4.365221 0.86017638
-0.88162631 4.7524848 0.86297029
-1.3822041 5.1898608 0.86513197
4.3358169 -4.230495 0.87062961
4.4314108 -4.1447582 0.87205219
0.38645729 -4.079154 0.87593353
4.491622 -4.064693 0.87062961
4.833652 -3.7328639 0.87774259
4.9039888 -3.6233349 0.87632
1.603301 -3.444592 0.87989181
1.729746 -3.3390369 0.87086731
-6.1498952 -3.095876 0.87060171
5.3093119 -3.018224 0.87774259
-3.86362 1.3346291 0.8738429
-0.53508842 4.4525499 0.87941968
0.30308789 -4.135221 0.8863861
-6.3076372 -3.0678999 0.88690972
5.4048319 -2.927701 0.88343298
5.485249 -2.817704 0.88627821
4.1133089 0.5948118 0.88847673
-4.2254081 1.643147 0.88904142
-2.1028171 4.472147 0.88230371
-0.96843553 4.8359981 0.88054609
-1.6306469 5.2207632 0.88103509
-1.523113 5.2531419 0.88103509
-1.978249 -6.8224168 0.89819998
-2.1056221 -6.7322302 0.8919276
-0.1148 -4.5616469 0.89481437
-0.01770008 -4.5434308 0.89096582
4.3636212 -4.4409699 0.89481378
0.2493666 -4.1877909 0.89683878
-6.4430132 -2.9674189 0.89694548
5.5879889 -2.722981 0.89339107
5.6706729 -2.6179709 0.89765888
4.5591459 -0.35446441 0.89673883
4.5630741 0.01263453 0.89481437
-3.449049 0.96022552 0.89337963
-0.62789261 4.5394988 0.8986631
-2.039161 4.5878491 0.89636427
-1.845807 -6.9313259 0.90698123
-0.2146063 -4.6268091 0.90828472
-4.6307068 -4.2938552 0.90761721
0.1564959 -4.2412181 0.90729147
0.45163411 -3.890224 0.90696537
0.53509861 -3.8894579 0.90922147
-6.5861769 -2.841223 0.90698123
4.192872 0.51635247 0.90311038
-3.7046399 1.177026 0.90019703
-4.208662 1.93406 0.90828472
0.21395069 3.6127 0.90306389
-2.6056099 4.3604941 0.90690982
-1.980583 4.656261 0.90339458
-1.1027369 4.9585371 0.90690982
-1.7479579 -7.0384531 0.91701698
-0.2820814 -4.6821728 0.91983068
0.072070204 -4.2923951 0.9177441
-4.76231 -4.2372952 0.91615272
-4.8534551 -4.163054 0.91899788
0.92708153 -3.054513 0.91261661
5.8683109 -2.463959 0.91473007
5.9473448 -2.348645 0.91899788
4.6483388 -0.4599117 0.91598213
4.6341801 -0.26228529 0.91020912
4.6607571 -0.065887898 0.91405767
-3.3225279 0.84909612 0.91779429
-4.0274739 1.486371 0.9177441
-3.6955149 2.808486 0.91020912
-3.6338949 2.9035189 0.9121334
-3.5912509 2.9715171 0.91405767
0.43546179 3.162262 0.91261661
0.3940697 3.1870639 0.9181143
-1.893629 4.7347331 0.91042489
-1.6348979 -7.1368351 0.9257983
-3.981663 -5.07902 0.92753351
-4.0443802 -5.0165129 0.92611092
-4.14325 -4.9222388 0.92468828
-4.2531018 -4.8408198 0.92611092
-4.369175 -4.7632179 0.92895609
-4.4767032 -4.662303 0.92895609
-4.5704198 -4.5704708 0.92895609
0.37581149 -3.966785 0.92275828
1.7615139 -3.584887 0.92501438
6.0514441 -2.2427919 0.92753351
4.7072668 -0.1686922 0.92367941
-0.2262688 3.7091601 0.92727482
-0.3530384 4.2980828 0.92192519
-0.74385399 4.6511822 0.92367941
-1.822848 4.8571801 0.92624313
-3.569428 -5.447876 0.93606907
-3.680618 -5.349369 0.9332239
-3.782022 -5.2659812 0.93180132
-3.8845301 -5.1784582 0.93037868
-0.40264019 -4.75214 0.93522543
-4.677443 -4.4895182 0.93180132
-5.0501671 -4.1441841 0.9389143
0.2408983 -4.045577 0.93855119
0.2948238 -4.0224681 0.934039
4.7325349 -3.3449299 0.93351549
4.7996759 -3.2654381 0.93510592
4.867991 -3.1807799 0.93669617
5.9491572 -2.6019659 0.9332239
6.125432 -2.1244619 0.93180132
6.2076898 -2.0354421 0.9389143
-3.5952251 1.0832191 0.93695909
0.32985929 3.2523379 0.93460739
-0.43152261 4.369534 0.93864948
-1.72868 4.9227982 0.93151581
-1.24107 5.077878 0.93327338
-5.1658292 -4.0634379 0.94460458
-5.2651501 -3.9833069 0.94887239
1.60496 -3.4481561 0.94906449
4.9774828 -3.0634451 0.94146711
5.0274 -3.0001309 0.94305742
6.3060799 -1.921275 0.94744992
4.7682209 -0.53915578 0.94099838
-3.8674691 1.335959 0.94757569
-4.4336028 1.835698 0.94099838
-4.4269862 1.926607 0.94677138
0.266776 3.3063509 0.94835162
-2.48157 4.1529131 0.94869572
-2.3785579 4.1789179 0.94292271
-0.88240892 4.7567039 0.94869572
-1.639375 5.005075 0.94030368
-0.1129254 -4.4871602 0.95955479
0.151595 -4.1083989 0.95208812
-5.3578339 -3.8915219 0.95171767
-5.470458 -3.801363 0.95740801
1.681599 -3.422251 0.95148557
0.2101588 3.548671 0.95140368
-0.5355649 4.4565148 0.95955479
-1.599542 5.1211748 0.95787948
-1.3832951 5.1939569 0.95963699
-0.2084243 -4.4935279 0.96164531
0.069835849 -4.1593199 0.96336871
0.36329961 -3.834718 0.9611699
0.44531921 -3.835829 0.96359098
-5.5822792 -3.7072229 0.96309841
-5.6577768 -3.6460619 0.96736622
0.92523003 -3.048413 0.96955049
6.4442048 -1.837816 0.96309841
4.1074409 0.59396333 0.96111262
-3.46187 0.96379489 0.96174502
-4.210743 1.637444 0.96582639
6.6777205 3.7710235 0.96970469
-2.104496 4.475719 0.96986341
-0.96921659 4.8398981 0.96793908
-0.27345729 -4.5390248 0.97209799
-0.01643355 -4.218328 0.97690552
4.3246222 -4.2195721 0.97327352
4.4127579 -4.1273122 0.97327352
4.4800239 -4.0541978 0.97327352
4.547421 -3.963444 0.97168308
0.28582141 -3.8996439 0.97569638
4.63027 -3.866333 0.97168308
4.7032351 -3.7614491 0.97009277
-5.7760921 -3.551008 0.9744792
4.543323 -0.35323411 0.97418851
4.5570159 0.01261776 0.97418851
4.1964002 0.51678699 0.97916162
-3.708046 1.178108 0.97085422
-0.141866 3.6293969 0.97208643
6.7495065 3.7443326 0.97597712
-1.524214 5.2569408 0.97721279
-0.38968429 -4.5992289 0.98673171
-0.017867221 -4.5863361 0.98046011
0.2353034 -3.951617 0.98780179
4.8289852 -3.72926 0.98281533
4.8992672 -3.6198449 0.98122501
-5.8839941 -3.448185 0.98016959
-6.0074892 -3.351871 0.98870522
5.3213511 -3.025068 0.98599589
4.5932798 -0.45446411 0.98673171
-3.3255949 0.84987992 0.98133779
-0.62839311 4.543118 0.98046011
-2.032691 4.5732918 0.98140937
-0.1075976 -4.2754588 0.99044228
0.14740001 -3.9947081 0.99748617
-6.1166859 -3.233794 0.99439561
5.4082379 -2.9295449 0.99076688
5.4974308 -2.823961 0.99553788
4.6571498 -0.26358539 0.9971844
4.6641369 -0.065935679 0.9971844
-4.0305672 1.487512 0.99495459
-4.238483 1.947764 0.9971844
-0.2258666 3.7025659 0.99276912
-0.3533023 4.3012962 0.99946678
-1.97814 4.6505179 0.99103111
-1.1034991 4.9619632 0.99680412
4.352354 -4.429503 1.000309
-0.20086759 -4.3306088 1.003979
0.0677597 -4.0356679 1.007171
-6.2330709 -3.137747 1.002931
5.591311 -2.7246001 1.001899
5.6739578 -2.619487 1.00667
-3.588737 1.081264 1.0031101
-0.74281669 4.6446962 1.005546
-1.894909 4.7379341 1.000653
-2.1037569 -6.7262659 1.012889
-0.26422411 -4.385767 1.017516
0.35624269 -3.760231 1.010866
-6.3199019 -3.0738659 1.010044
-0.06631659 3.556848 1.017073
-0.43085289 4.3627529 1.01526
-1.8205121 4.8509569 1.016047
-1.979234 -6.8258128 1.021425
-0.01595084 -4.0944209 1.021697
0.27892131 -3.805501 1.021208
1.610164 -3.459336 1.021208
-6.4462452 -2.9689081 1.020002
5.8622608 -2.4614179 1.024164
5.9411702 -2.3462069 1.028934
4.7788839 -0.1712587 1.022271
-3.454916 0.96185899 1.025319
-3.870059 1.336854 1.021697
-4.4272499 1.833068 1.024361
-0.01306347 3.5766721 1.02257
-1.7296979 4.9256968 1.0237449
-1.244122 5.0903649 1.027593
-1.846676 -6.9345899 1.031383
-3.977473 -5.0736752 1.038476
-4.040134 -5.0112462 1.036886
-4.1516252 -4.932188 1.038476
-4.2486358 -4.8357382 1.036886
-0.3767001 -4.4459829 1.033309
-0.1044744 -4.1513519 1.036224
0.1431928 -3.880688 1.039305
0.22910561 -3.8475339 1.031549
1.905683 -3.678658 1.033802
4.7269611 -3.3409901 1.033455
4.7940092 -3.2615809 1.035213
4.87047 -3.1824 1.038728
6.0358181 -2.237 1.036886
4.1099181 0.59432143 1.036224
-4.4295549 1.927725 1.032724
-0.88291359 4.7594252 1.034814
-1.640282 5.0078468 1.033366
-1.748728 -7.0415549 1.0427639
-3.571033 -5.450325 1.0496089
-3.687902 -5.3599572 1.048018
-3.7895341 -5.2764401 1.046428
-3.886348 -5.180882 1.043247
-4.3645668 -4.758194 1.040067
-4.4788189 -4.6645069 1.041657
-4.5795622 -4.5796132 1.043247
-4.6796112 -4.4915991 1.044838
-4.7707772 -4.4237361 1.048018
-4.8680258 -4.331356 1.0496089
0.065841399 -3.921417 1.049646
4.971549 -3.059793 1.042243
5.0298462 -3.00159 1.045758
5.9518862 -2.603159 1.046428
6.1282701 -2.1254461 1.044838
-3.3275239 0.85037303 1.045251
-3.710228 1.178802 1.041891
-4.222106 1.641862 1.0491019
-0.1430791 3.6604331 1.04731
-0.53587031 4.4590559 1.040077
-1.5886149 5.0861931 1.044912
-1.635576 -7.1397948 1.052722
-3.48944 -5.5262861 1.052789
-4.9533281 -4.2487211 1.051199
-0.19510449 -4.2063589 1.05075
-5.0676541 -4.158535 1.05597
0.22003131 -3.695142 1.058305
0.26988369 -3.6821949 1.055557
6.2010422 -2.033262 1.051199
4.5593181 0.01262413 1.0558701
-2.105514 4.4778838 1.0578099
-0.96969318 4.842278 1.055719
-1.386482 5.205925 1.056458
-0.25614631 -4.2516851 1.062855
-5.1757689 -4.0712581 1.0607409
-5.267302 -3.984935 1.063921
-0.0155047 -3.9798989 1.065158
-5.3679638 -3.8988791 1.068692
6.3086848 -1.922069 1.062331
0.063577637 3.710757 1.061054
-0.63002813 4.5549378 1.064895
-1.51118 5.211987 1.0641561
-0.36451709 -4.3021941 1.077382
4.3192272 -4.2143078 1.077395
4.4072542 -4.1221638 1.077395
4.4744358 -4.0491409 1.077395
4.5417609 -3.9585111 1.075637
4.624507 -3.861521 1.075637
-5.472548 -3.802815 1.073463
4.705081 -3.7629261 1.075637
-5.5843139 -3.7085741 1.079825
1.763702 -3.589339 1.070329
-3.5903389 1.0817471 1.07205
-4.0323572 1.488173 1.07254
-0.35265771 4.293447 1.0749609
-2.0375521 4.584228 1.072444
-0.1884319 -4.0625019 1.088426
-0.1018298 -4.046268 1.083256
0.14004029 -3.7952521 1.085794
4.815094 -3.7185321 1.086183
-5.6680641 -3.6526909 1.0861861
4.8851728 -3.609432 1.084425
6.4655409 -1.843901 1.083005
4.6660328 -0.065962479 1.080688
-3.446878 0.95962107 1.088925
0.2245214 3.791193 1.085794
-1.97893 4.6523752 1.080806
-1.103915 4.9638329 1.087077
-0.2468922 -4.0980792 1.098768
-0.01498259 -3.84588 1.099538
0.064080283 -3.8165269 1.091292
-5.777997 -3.5521801 1.0925471
1.6147929 -3.4692819 1.09404
5.3231602 -3.0260961 1.093213
5.4099932 -2.930496 1.0984859
-3.8713801 1.33731 1.096182
-4.3413901 1.889356 1.09648
-0.4310053 4.364296 1.094329
-0.74463129 4.6560421 1.0919681
-1.895595 4.7396488 1.091258
-5.902873 -3.4592481 1.102089
-6.0092201 -3.3528371 1.1084501
5.4991298 -2.8248341 1.103758
5.5840759 -2.7210741 1.109031
4.7608652 -0.1706129 1.103249
-3.3283041 0.85057229 1.109513
0.146302 3.8623691 1.105036
-1.8176301 4.843276 1.1058919
4.3605318 -4.4378271 1.1107889
-0.097966284 -3.89275 1.113282
-6.1183481 -3.234673 1.114812
5.6844501 -2.624331 1.117819
4.4521551 0.1071559 1.111277
4.1110492 0.59448498 1.111694
-3.711175 1.179103 1.113282
-4.4285588 1.8336101 1.1100169
-1.733415 4.9362812 1.118435
-1.242126 5.0821972 1.118435
-0.35558161 -4.196733 1.127207
1.928445 -3.7225981 1.122036
-6.243432 -3.142962 1.125944
0.37358239 3.6834381 1.126775
-0.53716087 4.4697952 1.123382
-0.88491529 4.770215 1.123554
-1.643721 5.0183458 1.128888
-2.1071661 -6.7371659 1.137076
3.8558099 -5.032413 1.13188
0.062475409 -3.720943 1.132598
4.7199769 -3.3360529 1.133432
4.8031392 -3.2677929 1.139205
-6.3213401 -3.0745649 1.132305
4.8730278 -0.2758036 1.130322
4.560154 0.01262644 1.1379091
-4.232038 1.645725 1.133067
-1.586017 5.0778751 1.1372499
-1.982371 -6.8366351 1.146618
-4.2429118 -4.8292222 1.147698
-4.3453569 -4.7372522 1.147698
-0.18576729 -4.005054 1.146268
1.7681611 -3.598413 1.146268
4.8714471 -3.183038 1.141129
4.9641318 -3.055228 1.1430531
5.0138869 -2.9920671 1.144978
5.8907809 -2.473393 1.140668
5.9423919 -2.3466899 1.140668
6.0369158 -2.2374079 1.149455
-3.590728 1.081864 1.141333
0.30160561 3.7380199 1.141333
-2.1100111 4.4874492 1.1483721
-0.62879151 4.5459991 1.145172
-0.97177571 4.8526769 1.146116
-1.84953 -6.9453039 1.15775
-3.869261 -5.158103 1.151213
-3.9903259 -5.0900688 1.1547281
-4.0594049 -5.0351501 1.1547281
-4.16504 -4.9481249 1.1547281
-4.4863901 -4.6723919 1.156486
-4.5803099 -4.5803599 1.156486
-5.4042358 -3.5889831 1.1582429
6.1292429 -2.1257839 1.1582429
-4.041894 1.491693 1.15306
0.22509681 3.800909 1.158802
-0.35269561 4.29391 1.15306
-2.0338261 4.5758448 1.159652
-1.38922 5.216207 1.1539741
-1.7489721 -7.0425358 1.168882
-3.4951701 -5.5353608 1.168789
-3.576946 -5.4593501 1.165274
-3.6884539 -5.3607578 1.1617579
-3.790118 -5.2772532 1.160001
-4.6874561 -4.4991279 1.160001
-4.7642722 -4.4177041 1.160001
-4.868731 -4.331984 1.163516
-4.9614949 -4.2557259 1.167031
1.614803 -3.4693019 1.164625
5.9528041 -2.6035609 1.160001
6.211267 -2.0366149 1.167031
4.6664319 -0.065968134 1.164541
-3.465255 0.96473718 1.161762
-1.5168279 5.2314668 1.164427
-5.068296 -4.159061 1.1705461
-5.1763549 -4.0717192 1.175819
4.4602399 -4.036294 1.179616
-5.2678509 -3.9853511 1.179334
4.534749 -3.952399 1.179616
4.6173668 -3.8555579 1.179616
4.6978168 -3.7571161 1.179616
6.3187881 -1.9251471 1.179334
5.0409732 -0.39192551 1.170933
-3.327924 0.85047519 1.174101
-2.9025919 1.071224 1.1762379
-2.8835969 1.121353 1.1762379
-3.0620861 1.130087 1.177892
-3.8714221 1.337324 1.171008
-2.7360301 1.464455 1.179792
2.808249 1.977908 1.174101
0.14629561 3.8621991 1.176272
-0.43196681 4.374032 1.1763279
-1.979095 4.6527619 1.170933
-0.74466312 4.6562409 1.176646
-1.101867 4.9546261 1.175445
-1.635762 -7.140605 1.180014
4.3125472 -4.2077899 1.18154
4.4004378 -4.115788 1.18154
-5.3684521 -3.8992341 1.184607
4.8617821 -3.592149 1.185389
1.47127 -3.3448601 1.180202
0.3858394 -2.8045421 1.187676
0.25470841 -2.6885109 1.187237
-1.9503289 -0.94859862 1.1820641
-2.248728 -0.71472943 1.184054
4.4423242 0.1069193 1.189255
4.1013069 0.59307629 1.184752
-3.710876 1.179008 1.185006
-2.595129 1.447274 1.187729
3.384707 1.451182 1.189422
-2.548517 1.491421 1.180306
-2.5233419 1.551435 1.184018
-2.490747 1.603241 1.184018
2.953208 1.827129 1.187039
2.90569 1.884455 1.183804
2.8650701 1.928764 1.18057
-1.8956831 4.7398691 1.182214
4.095602 -4.538908 1.198859
4.1777492 -4.436492 1.1950099
4.2641649 -4.3397508 1.193086
-0.25093949 -4.1652589 1.192999
-5.489141 -3.8143461 1.193395
4.8153501 -3.71873 1.193086
0.73465389 -3.063174 1.19756
0.57600898 -2.9245141 1.1914411
4.7802601 -0.171308 1.193594
-2.88837 1.257007 1.19756
-2.6607251 1.36402 1.195153
-2.833612 1.376007 1.19756
-2.6279359 1.406598 1.1914411
3.196595 1.451184 1.199977
3.1653171 1.5181969 1.199977
-2.734808 1.525172 1.1904531
3.123569 1.581495 1.1967421
-2.4861989 1.677629 1.198864
3.040354 1.7169405 1.193508
-2.4499879 1.730082 1.198864
-4.3770881 1.904891 1.191173
-2.268636 1.9618649 1.198864
-1.980927 2.2520111 1.198864
-1.503479 2.7574439 1.194006
-1.39126 2.826154 1.19756
-1.1001281 3.1328571 1.198259
-1.0927401 3.3361771 1.199977
-0.90347117 3.392329 1.199977
-0.6769163 3.648978 1.198643
-0.6224466 3.8920441 1.199564
0.067357287 3.9313591 1.196653
-1.8176219 4.843256 1.198007
3.9638441 -4.718678 1.208481
4.0116658 -4.6392379 1.202708
1.93268 -3.730772 1.201245
-5.6683092 -3.652849 1.20394
0.85535997 -3.2180719 1.201654
0.89986563 -3.2059121 1.201654
5.3233318 -3.0261941 1.200783
5.418714 -2.93522 1.208481
0.096812323 -2.6237249 1.207805
6.494277 -1.852096 1.205698
-2.91907 1.208618 1.201113
-3.1121809 1.210243 1.205048
-2.706341 1.314204 1.202576
-2.8792651 1.323145 1.204667
3.4500899 1.393146 1.2017159
-2.8114729 1.441301 1.201113
-2.7429149 1.605185 1.208221
-2.4335711 1.768939 1.202576
-2.402725 1.826002 1.206288
-4.4463811 1.840989 1.200857
-2.3649311 1.889604 1.209999
-2.31795 1.917946 1.202576
-2.213563 2.064858 1.209999
-2.170634 2.109941 1.209999
-2.1229081 2.157954 1.209999
-1.945273 2.307225 1.206288
-1.562839 2.7457709 1.201113
-1.459636 2.8125319 1.204667
-1.348333 2.8675561 1.204667
-1.3033561 3.0641301 1.201654
-1.17327 3.126307 1.205048
-1.052268 3.368994 1.206445
-0.84021747 3.437777 1.20968
-0.88563591 3.6236069 1.20479
-0.80773008 3.6320169 1.2017159
-0.54265922 3.923285 1.205387
-0.47257209 3.932343 1.205387
-0.2575931 4.2226501 1.209492
-0.5371148 4.4694118 1.204767
3.5812709 -5.0753942 1.218102
3.682555 -4.990201 1.2161781
3.7659881 -4.9151831 1.214254
3.871433 -4.8199859 1.212329
-5.7781491 -3.552273 1.210971
5.4991398 -2.8248391 1.212329
5.575181 -2.7167389 1.2161781
-0.063714631 -2.53174 1.2175111
-0.20524579 -2.4224031 1.219934
-1.830215 -1.125174 1.2186871
3.6877899 0.77492839 1.217083
4.166873 0.78469121 1.2122411
3.6766641 0.82610518 1.217083
3.9227979 0.82431149 1.219945
3.901629 0.87665242 1.217033
3.6590259 0.90101892 1.217083
3.8736229 0.95386243 1.2141221
3.845176 1.02625 1.21121
-3.0304151 1.046811 1.218881
-3.589895 1.0816129 1.210937
3.5773289 1.122475 1.210937
3.5536549 1.19531 1.210937
-2.7674689 1.27177 1.217423
3.5231991 1.282303 1.210937
3.504652 1.33216 1.210937
-4.222517 1.642022 1.212523
-2.731194 1.679229 1.218881
-2.1574781 1.944927 1.2186249
-2.1240599 1.9813679 1.2186249
-2.0828669 2.0246279 1.2186249
-2.255286 2.0330989 1.213711
-2.0977571 2.2080979 1.217423
-2.0526061 2.237546 1.213711
-1.298396 2.9212229 1.215328
-1.432882 3.047369 1.215232
-1.36771 3.0771711 1.215232
-1.24699 3.1179099 1.2118371
-1.048183 3.2001441 1.215232
-0.73993832 3.6949689 1.217083
-0.5935961 3.711647 1.21401
-0.01460554 3.998877 1.217033
-0.88485068 4.769866 1.210541
-1.733335 4.9360518 1.211543
-1.2420681 5.0819612 1.211543
1.771987 -3.6062009 1.222857
0.5338949 -3.02683 1.2285579
5.6842332 -2.6242311 1.227724
-2.584537 -2.2168889 1.22881
-2.6249721 -2.1540611 1.225415
-2.4477291 -2.0995409 1.225989
-2.5346429 -1.993749 1.225989
-0.93437469 -1.863206 1.229556
4.9016171 -0.27742171 1.225068
4.5691729 0.01265142 1.222864
4.0069008 0.49345019 1.22868
3.99561 0.57779181 1.22868
4.222827 0.6884197 1.223236
3.740644 0.70442522 1.229377
-3.454885 0.96185023 1.225852
3.6592751 0.97663379 1.22323
3.63732 1.055467 1.22323
-2.283716 1.824713 1.226362
-2.2450609 1.857636 1.222494
-2.2041011 1.906056 1.222494
-2.050004 2.083847 1.226362
-0.9960503 3.4353299 1.222618
-2.1726179 4.4133768 1.227489
-1.649653 5.0364561 1.227336
4.7275519 -3.341408 1.237596
4.7945542 -3.2619519 1.239686
-2.5073619 -2.05755 1.233096
-2.3903351 -1.961517 1.235981
-2.437649 -1.917454 1.239693
-2.3459051 -1.774776 1.2341
-2.1757569 -1.580304 1.23706
3.9940121 0.65111732 1.231591
3.976836 0.74890399 1.231591
-3.3263741 0.85007888 1.238994
-2.8437829 1.2376029 1.239693
-4.0410008 1.491363 1.231483
-2.3868821 1.735001 1.237968
-2.334693 1.7743 1.230231
-2.019717 2.125953 1.230231
-1.988523 2.1676891 1.2341
-1.269578 2.984719 1.233096
-1.516356 3.0802701 1.238994
-0.075794034 4.0651641 1.237414
-0.35261771 4.2929611 1.231483
-2.1096749 4.486733 1.237173
-0.63000977 4.5548072 1.23062
-0.97162819 4.8519411 1.2347521
-1.591655 5.0959239 1.236361
1.622295 -3.4854 1.241671
0.69402432 -3.1970921 1.243757
4.8627262 -3.17734 1.2417769
4.9635601 -3.0548761 1.245958
5.8350182 -2.5520451 1.248891
5.8630428 -2.461746 1.246967
-2.3024969 -1.889437 1.2495739
-2.3337951 -1.835762 1.245705
-2.1867039 -1.794417 1.2435811
-2.2305059 -1.7545151 1.247605
-2.263166 -1.71218 1.247605
-2.03303 -1.59918 1.243508
-2.0330999 -1.41278 1.24236
-1.9284559 -1.400683 1.247094
-1.9572901 -1.3601 1.247094
4.6653252 -0.065952472 1.248717
-3.86113 1.333769 1.243237
-2.4254889 1.712782 1.245705
-2.7509329 1.770717 1.243757
-1.9550281 2.222568 1.241837
-1.9199131 2.2771471 1.2495739
-1.026384 3.286124 1.242388
-1.210165 3.4462099 1.248493
-0.79086298 3.5561731 1.245259
-2.0334239 4.5749421 1.249279
-1.388997 5.2153659 1.249898
1.474426 -3.352036 1.2517281
5.021677 -2.996716 1.250139
5.9326649 -2.342849 1.250816
-2.0843611 -1.576906 1.256506
-1.914911 -1.44871 1.256366
-1.64459 -1.349556 1.2549599
3.841327 0.62622619 1.257038
-3.7002521 1.175632 1.253965
-3.2068901 1.327787 1.252571
-0.4318333 4.3726802 1.256222
-1.974833 4.6427422 1.258963
-3.87465 -5.165287 1.266211
-4.268312 -4.8581319 1.268135
-4.741961 -4.397016 1.268135
0.21078859 -2.8759229 1.267728
6.0269642 -2.2337191 1.260437
-2.156426 -1.696243 1.262136
-2.1880009 -1.655314 1.262136
-1.974007 -1.552753 1.2603
-2.122004 -1.541262 1.260839
-2.0171659 -1.526071 1.2692699
-2.0393071 -1.481197 1.2647851
5.0397892 -0.39183339 1.261384
-1.515792 2.780026 1.265674
0.067325853 3.9295249 1.2693321
-0.1617949 4.1392441 1.260707
-0.74445462 4.6549368 1.261644
-1.103698 4.9628611 1.268647
-1.5192471 5.2398109 1.2634341
-1.982152 -6.8358779 1.270728
-3.687876 -5.3599181 1.2758321
-3.789542 -5.2764511 1.273908
-3.9958279 -5.0970879 1.270059
-4.0650029 -5.0420928 1.270059
-4.170783 -4.9549489 1.270059
-4.3780041 -4.7728429 1.270059
-4.4857488 -4.6717238 1.270059
-4.5796552 -4.5797062 1.270059
-4.875278 -4.3378091 1.279681
2.1282361 -3.90995 1.272715
1.931828 -3.7291291 1.278176
-2.792372 -2.48453 1.277603
6.1190672 -2.1222551 1.270059
-1.862626 -1.409155 1.272992
-1.889748 -1.372568 1.272992
4.7786441 -0.1712501 1.279741
4.4503512 0.1071125 1.272715
3.917897 0.56655401 1.2785521
-2.5148449 1.696959 1.272786
-4.3185601 1.984563 1.2719851
-1.2426471 3.1070521 1.272185
-1.016336 3.816113 1.275479
-0.54108322 3.91189 1.275479
-1.902374 4.7565989 1.278332
-1.851809 -6.9538641 1.284789
-3.4090719 -5.6219149 1.289302
-3.494559 -5.5343928 1.28353
-3.5817311 -5.4666529 1.281605
-4.9680991 -4.2613902 1.28353
-5.0749741 -4.1645408 1.287378
-0.72395331 -3.9112451 1.284699
-0.64220887 -3.915853 1.281626
-0.60643798 -3.697741 1.280838
4.821312 -3.562248 1.281497
-0.4456864 -3.5464759 1.289911
-0.39864469 -2.4307261 1.288818
6.228858 -2.042383 1.285454
-1.9324239 -1.342821 1.282564
-3.596889 1.08372 1.284072
-2.7971361 1.887442 1.282846
-4.402216 1.915827 1.284912
-1.646488 3.1725709 1.289911
-2.6348269 4.0134258 1.284912
-0.25747171 4.2206602 1.286911
-0.53689319 4.4675679 1.28646
-5.1830711 -4.0770011 1.293151
-5.2746148 -3.990468 1.2970001
5.1656108 -0.51109111 1.295279
-3.4615381 0.9637025 1.2967
-4.2296209 1.644785 1.297455
-4.4536939 1.844017 1.2900831
1.137141 1.984934 1.297631
1.00555 2.0547321 1.297631
1.139805 2.203589 1.29809
1.327835 2.2155969 1.29618
1.344028 2.346065 1.299834
1.285291 2.358243 1.291168
-0.01463229 4.0062032 1.293919
-2.47259 4.1378841 1.2900831
-2.316797 4.2491021 1.295253
-0.88273948 4.7584858 1.295253
-1.8170381 4.8416991 1.290437
4.1900649 -4.4495721 1.306583
4.2767811 -4.352591 1.304493
4.3605728 -4.2546501 1.302402
4.4494429 -4.161623 1.302402
4.5100169 -4.0813398 1.300312
4.5853581 -3.9965091 1.300312
-0.81791931 -3.951004 1.30314
-5.3752389 -3.9041629 1.302773
4.6688981 -3.898587 1.300312
-5.479784 -3.807843 1.3085459
4.7578831 -3.8051541 1.302402
-0.55226421 -3.782738 1.306713
4.821856 -3.7237549 1.302402
1.77937 -3.6212251 1.30314
-0.3806482 -3.5918829 1.303489
-0.2068589 -3.4335799 1.307721
-0.36250201 -3.4206519 1.307721
-0.28961879 -3.418211 1.304168
-0.19600201 -3.253371 1.302791
6.36445 -1.939059 1.304697
4.566999 0.0126454 1.305701
-3.0113549 1.246827 1.302791
1.187203 2.07232 1.301706
1.24896 2.2915831 1.309636
-0.78173459 4.2140098 1.3043801
-2.242681 4.3213601 1.303009
-1.732705 4.934258 1.3049639
-1.24392 5.0895391 1.307385
3.962667 -4.7172761 1.317036
4.016932 -4.645328 1.312855
4.1075921 -4.5521951 1.310764
-5.5996308 -3.7187459 1.318167
1.621159 -3.4829581 1.313182
4.9090948 -0.27784491 1.315936
-3.8586271 1.3329051 1.318507
-4.0387702 1.49054 1.310203
1.199986 2.201725 1.311998
1.306215 2.280061 1.318606
-1.016325 3.5052559 1.317067
-1.349846 3.5968139 1.313182
-0.075923957 4.0721331 1.315434
-0.3532061 4.3001251 1.313115
-2.1716411 4.4113932 1.315936
-0.63101071 4.5620432 1.316697
-1.645955 5.0251651 1.31949
3.7767079 -4.929173 1.327489
3.870244 -4.8185058 1.3212169
-0.4825671 -3.8399479 1.322885
1.477026 -3.3579459 1.323856
-0.15316419 -3.3021469 1.321349
5.3898711 -3.0640199 1.325398
6.4736719 -1.84622 1.320092
5.283298 -0.59739703 1.326753
4.3586001 0.18300641 1.327673
1.159747 2.127897 1.3208489
1.255267 2.191129 1.32127
1.417709 2.3655601 1.32583
-2.1045511 4.4758358 1.323692
-0.97116882 4.849647 1.323692
-1.585173 5.075171 1.326753
3.7046139 -5.020092 1.33376
2.3079579 -4.0740819 1.338688
5.4858928 -2.9716101 1.33376
5.567039 -2.8597181 1.3379411
0.72964662 -2.2322509 1.332168
0.77569741 -2.2166691 1.332168
-2.544359 -2.182426 1.3399071
0.79169649 -2.122391 1.336252
4.6626992 -0.065915354 1.33319
-3.715517 1.180482 1.332589
-4.2033892 2.041173 1.335939
1.121455 2.1681139 1.33042
-2.5697191 3.9142511 1.338688
-0.43155709 4.3698831 1.336408
-2.024523 4.5549159 1.334033
3.613946 -5.1216998 1.340032
4.7256379 -3.340055 1.340143
4.7845302 -3.2551329 1.340143
4.8688569 -3.1813459 1.346911
4.9614372 -3.05357 1.349167
5.6613212 -2.7587149 1.346303
0.82990491 -2.2248211 1.34697
5.02736 -0.39086711 1.349545
2.9193521 0.29673511 1.3499
3.035156 0.43890369 1.348219
-4.3286991 1.8838331 1.349683
-4.2633848 1.959208 1.341437
-0.77479601 3.869035 1.348761
-2.502414 3.991703 1.346934
-0.1620512 4.145803 1.340021
-1.966188 4.6224189 1.344375
-0.7455225 4.6616149 1.349683
-1.4968489 5.162559 1.34128
-1.390831 5.2222519 1.348543
2.126755 -3.907228 1.3538769
5.0278401 -3.0003941 1.3559361
5.7532902 -2.656112 1.354666
0.7567414 -2.162499 1.351495
1.784324 -1.014348 1.356055
2.2236011 -0.58668602 1.356576
2.229619 -0.52712542 1.351495
2.2451091 -0.49808419 1.356576
2.3633649 -0.36877561 1.356838
2.3705859 -0.31908041 1.356838
2.48616 -0.1932939 1.359135
2.59444 -0.092975758 1.358359
2.70737 0.065161876 1.358971
4.4568172 0.1072682 1.356788
2.815423 0.1764112 1.35616
3.1626649 0.59558219 1.350159
-3.5935259 1.082707 1.354407
-4.3884139 1.816988 1.3579299
-2.4264841 4.0607271 1.352432
-1.876111 4.6909332 1.352131
-0.3200337 -3.7771809 1.367985
1.939085 -3.7431369 1.361535
-0.5449056 -3.7323351 1.361196
5.850605 -2.558862 1.365118
5.9058099 -2.4797029 1.3692991
0.82945353 -2.370285 1.368706
-2.2964931 -1.88451 1.366617
5.4329152 -0.73126918 1.3679121
2.344723 -0.55433822 1.366706
2.2720029 -0.45401809 1.366737
2.490284 -0.2463914 1.36392
4.7850852 -0.17148089 1.368925
2.613565 -0.03694728 1.367631
2.7260189 0.0075479751 1.367941
2.829947 0.0078357356 1.360492
2.955852 0.1852103 1.362438
3.0783279 0.31289399 1.360292
3.221632 0.46586931 1.365634
-3.466862 0.96518469 1.368132
-2.3542669 4.13624 1.360678
-2.292136 4.2038741 1.368925
-0.25726411 4.217257 1.364609
-1.7921129 4.7752848 1.365057
-1.105159 4.9694262 1.3624721
-0.1676067 -3.6135199 1.375239
4.771791 -3.52566 1.3739851
6.0030298 -2.370636 1.379752
2.6099429 -0.25823051 1.372267
2.7332129 -0.097948909 1.372426
2.9755099 0.36643419 1.379155
3.0900149 0.50374472 1.37639
3.2400329 0.52820122 1.3772399
-1.5826091 3.049485 1.373312
-2.2233181 4.284049 1.37992
-3.8964109 -5.1942968 1.388114
-4.0000601 -5.1024861 1.386024
-4.06317 -5.0398188 1.3839329
-4.1689019 -4.952714 1.3839329
-4.279315 -4.870656 1.386024
1.781883 -3.6263399 1.3811049
1.623432 -3.487843 1.388352
-0.1529581 -3.297703 1.384977
3.440088 -2.9983139 1.388816
1.8847359 -1.07143 1.380111
2.363277 -0.62353879 1.3864419
5.1622262 -0.51075631 1.388325
2.632463 -0.2046687 1.381539
2.636188 -0.149203 1.381539
2.7615049 -0.039038669 1.3858809
4.563324 0.01263522 1.388816
2.8741879 0.069176927 1.382156
2.8724899 0.1206085 1.382156
3.0055921 0.2522414 1.387514
3.125504 0.38490611 1.384439
-4.2352471 1.6469719 1.382993
1.3618881 2.272418 1.386175
-3.8873639 2.3900809 1.388816
-3.8291061 2.4647141 1.385904
-1.717893 3.018188 1.388159
-3.0013111 3.4120319 1.382993
-2.9353211 3.481488 1.385904
-0.88561928 4.7740102 1.388167
-1.7091171 4.8670878 1.380569
-3.585377 -5.472219 1.398567
-3.6972489 -5.3735409 1.3943861
-3.793503 -5.2819662 1.390205
1.479061 -3.3625729 1.396561
3.3906579 -3.0683761 1.391727
6.1069112 -2.2633491 1.392295
2.5598099 -0.1448801 1.39742
-3.8637609 1.3346781 1.397277
-4.0441179 1.4925129 1.39227
-3.9632659 2.3193469 1.39755
-2.8706601 3.559608 1.391727
-2.806458 3.6346459 1.39755
-0.075849824 4.0681572 1.390808
-0.35288969 4.2962718 1.39227
-2.1487291 4.36485 1.390916
-1.623716 4.9572682 1.396081
-3.4980941 -5.5399909 1.4006571
4.5074592 -4.0790238 1.407827
-0.74915987 -4.0474272 1.406981
4.582757 -3.994242 1.407827
-0.01371009 -3.5192411 1.4067169
-0.29711661 -3.5067029 1.4067169
3.367696 -3.1498511 1.403373
6.1902208 -2.1469331 1.4006571
2.658905 -0.3006497 1.4000829
4.895699 -0.2770867 1.401911
2.793062 -0.1580817 1.4038219
2.8039989 0.1177327 1.408307
4.3544841 0.1828336 1.407637
-3.7113659 1.179163 1.405324
-2.739733 3.709017 1.403373
-2.693959 3.7541771 1.406285
-2.0865099 4.4374681 1.401911
-1.245356 5.0954132 1.403837
4.1051569 -4.5494971 1.419108
4.194303 -4.454072 1.416851
4.2743111 -4.3500772 1.412339
4.3650498 -4.2590179 1.412339
4.4468961 -4.1592412 1.4100831
4.673727 -3.9026201 1.4100831
4.7551589 -3.8029759 1.4100831
4.826807 -3.7275779 1.412339
3.5615089 -2.9739039 1.4121079
6.2815781 -2.059669 1.4132
5.2697711 -0.59586751 1.41935
2.9278159 0.2457142 1.412486
-4.0523062 2.2599249 1.4121079
-0.16224881 4.150856 1.4199179
-0.4320724 4.3751011 1.4199311
-0.97228342 4.8552122 1.415655
-1.578234 5.0529552 1.416764
3.9602571 -4.7144079 1.425876
4.0209022 -4.64992 1.42362
2.3105781 -4.0787082 1.426666
3.6459761 -2.9158981 1.420843
6.3797779 -1.943729 1.4257441
4.6681099 -0.065991841 1.420843
3.086117 0.1295781 1.420948
3.3209341 0.69783968 1.423663
1.01999 2.1948521 1.427707
-4.1329241 2.2121401 1.426666
-2.6463871 3.8576751 1.423754
-2.0267551 4.559937 1.426651
3.7802429 -4.9337869 1.439413
3.867852 -4.8155279 1.430388
2.1291161 -3.911566 1.4383709
5.3949552 -3.06691 1.437157
6.4700122 -1.845176 1.438287
5.0133958 -0.38978139 1.437646
4.4521909 0.1071568 1.4383709
-3.461894 0.96380162 1.43641
-3.6068079 1.086709 1.432097
-4.3488202 1.800594 1.432489
-4.3158522 1.878242 1.432489
-4.276865 1.965402 1.432489
-4.2340312 2.0560529 1.432489
-4.1885219 2.1472449 1.432489
-2.588387 3.942687 1.435401
3.702214 -5.01684 1.443925
1.941239 -3.7472939 1.442559
4.7143149 -3.332052 1.440544
4.7891102 -3.258249 1.445387
5.4823399 -2.9696851 1.443925
2.4508109 -0.69894427 1.445649
3.2657959 0.27407879 1.440783
-4.1595559 1.617538 1.441445
-4.1323128 1.710951 1.444518
-4.100987 1.784734 1.444518
-4.0552931 1.8635809 1.441445
-4.0232391 1.953692 1.444518
-3.9431951 2.1105881 1.444518
-3.906137 2.1784079 1.444518
-3.8601029 2.258975 1.444518
-3.8099899 2.342509 1.444518
-3.7607751 2.4207311 1.444518
-3.715308 2.5070031 1.447592
-3.661195 2.5853879 1.447592
-3.625437 2.6352949 1.447592
-3.568471 2.711936 1.447592
-3.5015659 2.797787 1.447592
-3.4531901 2.857281 1.447592
-0.25812209 4.2313218 1.449028
-1.389715 5.2180629 1.4452029
1.77959 -3.6216741 1.456242
4.865272 -3.179003 1.450229
4.9742818 -3.061475 1.457492
5.0240259 -2.9981179 1.459913
5.5720448 -2.8622899 1.450693
5.6574898 -2.7568481 1.457462
0.93597227 -2.5091679 1.4596339
1.489557 -1.8545181 1.458109
4.7803092 -0.1713098 1.4557821
3.567981 0.67190993 1.451257
-3.814127 1.317533 1.456242
-3.985868 1.471016 1.452263
-3.959784 1.539852 1.452263
-3.9254789 1.625314 1.452263
-3.895721 1.695403 1.452263
-3.860528 1.774078 1.452263
-3.8303771 1.860038 1.455497
-3.789206 1.942536 1.455497
-3.7541699 2.009413 1.455497
-3.996932 2.049026 1.450665
-3.7271521 2.0785911 1.458732
-3.683228 2.1554661 1.458732
-3.6273501 2.230216 1.455497
-3.5725379 2.299566 1.452263
-3.5375409 2.3870499 1.458732
-3.486017 2.461684 1.458732
-3.4519701 2.5092039 1.458732
-3.3977289 2.5821769 1.458732
-3.3340261 2.6639211 1.458732
-3.2879651 2.7205679 1.458732
-3.227977 2.791481 1.458732
-3.1697271 2.8574519 1.458732
-3.3973861 2.9379821 1.450665
-3.3360789 3.0074151 1.450665
-3.2983229 3.076746 1.456812
-3.22071 3.1306551 1.450665
-3.149895 3.201895 1.450665
-3.100153 3.2632191 1.453739
-3.0362699 3.309839 1.450665
-2.9790981 3.3867791 1.456812
-2.907475 3.448462 1.456812
-2.8375039 3.5184951 1.459885
-2.762485 3.577697 1.459885
-2.53565 4.0447192 1.45287
-2.453624 4.1061449 1.4557821
-2.3661709 4.157155 1.4557821
-2.2944281 4.208077 1.458693
-0.53705388 4.468905 1.453739
-1.987085 4.6715479 1.45139
-1.892316 4.7314501 1.456888
-1.104156 4.9649191 1.454139
-1.511817 5.2141838 1.4529589
1.629037 -3.4998851 1.467633
4.7133389 -3.4824719 1.462334
3.491477 -2.915427 1.469106
5.7492871 -2.654264 1.466486
5.4282808 -0.73064548 1.465886
2.643353 -0.52822548 1.469205
-3.368372 2.272898 1.4664249
-3.3116281 2.3385379 1.4630311
-3.279285 2.3836811 1.4630311
1.184906 2.421226 1.469205
-3.2352459 2.4586949 1.4664249
-3.1745889 2.5365291 1.4664249
1.338647 2.588012 1.462127
-3.1307311 2.5904679 1.4664249
-3.073612 2.65799 1.4664249
-3.0181479 2.7208049 1.4664249
-2.9205179 2.8388569 1.46982
-2.8563039 2.9034569 1.46982
-3.1413889 2.9303541 1.468435
-3.066895 2.981142 1.461966
-2.9994631 3.04898 1.461966
-2.690027 3.0581501 1.46982
-2.9458549 3.100805 1.461966
-2.897661 3.158741 1.465201
-2.8311031 3.2185309 1.465201
-2.7691369 3.284384 1.468435
-2.6912689 3.6434081 1.4629591
-2.6408269 3.6801341 1.4629591
-2.562362 3.7351911 1.4629591
-2.491091 3.7944851 1.466032
-2.416049 3.8539381 1.469106
-2.333216 3.9046421 1.469106
-0.075925097 4.0721941 1.46982
-2.212214 4.2626538 1.461605
-2.1253221 4.3173022 1.464516
-2.047595 4.3547039 1.464516
-1.958349 4.406033 1.467428
-1.797232 4.7889228 1.462386
-1.697926 4.835217 1.465135
-1.598153 4.8792238 1.467883
-1.53071 4.9008012 1.467883
1.484264 -3.3744011 1.473527
3.443352 -3.001159 1.475253
3.559742 -2.8469319 1.4721791
3.6151381 -2.791847 1.475253
3.673697 -2.7143281 1.475253
5.846396 -2.5570221 1.477767
1.097458 -2.35782 1.475253
3.0729909 -0.043442059 1.477478
4.5676551 0.01264721 1.475253
-3.529681 1.063471 1.473527
-3.6881101 1.171775 1.471186
-2.9850459 1.835305 1.4700871
-2.8881531 2.603617 1.4782929
-2.7882731 2.71031 1.4782929
-2.992034 2.7910321 1.476609
-2.811733 2.9596281 1.473214
-2.7596281 3.008271 1.473214
-1.681869 3.0846181 1.473956
-2.637481 3.1282301 1.476609
-2.568588 3.18504 1.476609
-2.500679 3.238631 1.476609
-2.7086871 3.3587611 1.4749039
-2.63129 3.4077859 1.471669
-2.5580709 3.4630859 1.471669
-2.5101249 3.4979939 1.471669
-2.440897 3.5581291 1.4749039
-2.3732231 3.614944 1.478138
-2.2969151 3.663903 1.478138
-2.2547619 3.9614191 1.4721791
-2.1820331 4.0019398 1.4721791
-2.104039 4.054214 1.475253
-2.0173769 4.0980258 1.475253
-1.947646 4.1421399 1.478326
-0.35322919 4.300406 1.4749039
-1.891035 4.4457378 1.4703389
-1.797604 4.4946361 1.473251
-1.70086 4.5321312 1.473251
-1.610204 4.5854101 1.479074
-1.432444 4.9404302 1.470632
-1.323819 4.9706378 1.470632
-1.223543 5.006166 1.473381
3.400887 -3.0776329 1.4814
5.9104891 -2.481668 1.484535
-3.9967051 -1.724146 1.487842
-4.0272369 -1.651572 1.487842
-3.875355 -1.3983819 1.486792
5.1571808 -0.51025712 1.4816279
4.348906 0.1825994 1.487842
3.3106301 0.62344629 1.481028
3.8562641 0.62866122 1.485401
-3.402386 0.94723439 1.481693
-3.3904569 1.021523 1.485562
-3.3747671 1.07222 1.485562
-3.5310459 1.121873 1.48095
-3.3469419 1.1561511 1.485562
-3.5019331 1.20969 1.48095
-3.32199 1.226006 1.485562
-3.4758251 1.282781 1.48095
-3.3002501 1.283378 1.485562
-3.453079 1.342808 1.48095
-3.280179 1.358132 1.48943
-3.2468569 1.41302 1.485562
-3.2259049 1.4824409 1.48943
-3.185302 1.546788 1.485562
-3.1510651 1.615393 1.485562
-3.130059 1.675359 1.48943
-3.0925889 1.724702 1.485562
-3.056144 1.788489 1.485562
-2.23105 2.5363629 1.4850529
-2.8502531 2.658776 1.481847
-2.7335219 2.7786479 1.481847
-2.6846671 2.8258791 1.481847
-2.634917 2.872324 1.481847
-2.574394 2.926692 1.481847
-2.5185261 2.9871409 1.485401
-2.4527409 3.041389 1.485401
-2.3878939 3.0925629 1.485401
-2.3214481 3.1427481 1.485401
-2.2779369 3.174428 1.485401
-2.2155421 3.2296269 1.4889539
-2.1494031 3.2740171 1.4889539
-2.4366829 3.2987521 1.480003
-2.391012 3.3320041 1.480003
-2.3199699 3.3818531 1.480003
-2.2507131 3.428335 1.480003
-2.183341 3.4827371 1.483398
-2.113312 3.5366321 1.486792
-2.227875 3.728353 1.484607
-2.1437869 3.7664461 1.481373
-2.0746379 3.8049719 1.481373
-1.862926 4.1913438 1.4814
-1.79533 4.2207398 1.4814
-1.515725 4.6275692 1.481986
6.0075779 -2.372432 1.495816
-3.732234 -2.2944911 1.497545
-3.7798829 -2.215117 1.497545
1.293406 -2.187026 1.4988379
-3.8258989 -2.134656 1.497545
-3.864785 -2.0432501 1.49431
-3.8963521 -1.961436 1.491076
-3.9228101 -1.907971 1.491076
-3.9621689 -1.824832 1.491076
-3.7303219 -1.8143491 1.496976
-3.7677491 -1.735289 1.496976
-3.582828 -1.650121 1.499615
-3.800216 -1.639382 1.4935811
-3.829247 -1.570376 1.4935811
-3.8525231 -1.486443 1.490187
-3.6714101 -1.416563 1.496061
-3.701601 -1.335685 1.496061
-3.5287089 -1.273298 1.499508
-3.7172091 -1.262846 1.4925081
-3.5520251 -1.206728 1.499508
4.8999028 -0.27732471 1.493632
-3.2905321 0.84091938 1.493102
-3.1225541 1.358923 1.497126
-3.0860269 1.418162 1.493102
-3.05512 1.483572 1.493102
-3.0304289 1.5535491 1.497126
-2.9943371 1.6027139 1.493102
-2.9741919 1.658673 1.497126
-2.939141 1.720018 1.497126
-2.900984 1.783622 1.497126
-2.8635111 1.843181 1.497126
-2.822886 1.904817 1.497126
-2.2402439 2.777894 1.4971679
-2.343303 2.9056871 1.492085
-2.2813489 2.954577 1.492085
-2.2178681 3.0025229 1.492085
-2.1817119 3.040333 1.495797
-2.116889 3.0858181 1.495797
-2.0485981 3.1204691 1.492085
-1.987661 3.170599 1.495797
-1.919515 3.2123129 1.495797
-2.0852571 3.326278 1.4925081
-2.0137651 3.3700399 1.4925081
-1.379396 3.6755531 1.4925081
-0.53789508 3.8888421 1.4925081
3.4123731 -3.191638 1.509061
-3.6210871 -2.5162539 1.507248
-3.6732731 -2.439441 1.507248
-3.6985731 -2.3834851 1.504014
-3.5105529 -2.2623191 1.507159
6.11129 -2.264972 1.509353
-3.5497921 -2.1823311 1.503765
-3.5951121 -2.1068361 1.503765
-3.6306651 -2.0257249 1.50037
-3.6755049 -1.943181 1.50037
-3.7135639 -1.8694201 1.50037
-3.503731 -1.852366 1.506722
-3.531662 -1.777849 1.503168
-3.5556431 -1.729389 1.503168
-3.630497 -1.566167 1.503168
-3.658231 -1.5002429 1.503168
-3.4616151 -1.493312 1.506932
-3.488059 -1.430455 1.506932
-3.5172541 -1.357085 1.506932
-3.3552461 -1.294576 1.508774
-3.3828371 -1.220662 1.508774
-3.3964579 -1.153877 1.504905
-3.4273779 -1.089348 1.508774
4.6718812 -0.066045158 1.509061
-3.1548641 1.306246 1.501151
-2.789248 1.969655 1.501151
-2.762007 2.0076759 1.501151
-2.562187 2.047214 1.5087121
-2.7186069 2.0660639 1.501151
-2.5267889 2.0907471 1.5087121
-2.6676371 2.131469 1.501151
-2.480689 2.1452429 1.5087121
-2.6307819 2.1767941 1.501151
-2.435925 2.1959419 1.5087121
-2.5827839 2.2335329 1.501151
-2.5361769 2.2863181 1.501151
-2.4968939 2.329155 1.501151
-2.4615991 2.3927701 1.5092
-2.407475 2.4472189 1.5092
-2.3644481 2.488816 1.5092
-2.320631 2.529721 1.5092
-2.212816 2.6245489 1.5092
-2.1492701 2.665087 1.505175
-2.0924461 2.709929 1.505175
-2.0342209 2.7539051 1.505175
-1.996094 2.7816639 1.505175
-2.186651 2.831933 1.501036
-1.941964 2.8308289 1.5092
-1.883992 2.8697369 1.5092
-2.1258049 2.8778889 1.501036
-2.0859611 2.906898 1.501036
-1.823415 2.908603 1.5092
-1.7609 2.946871 1.5092
-2.023982 2.950387 1.501036
-1.9635611 2.9909389 1.501036
-1.900426 3.0314469 1.501036
-1.835271 3.0713301 1.501036
-1.769858 3.109484 1.501036
-1.652356 3.1838779 1.504905
-1.588371 3.2265589 1.508774
-1.5302809 3.2545111 1.508774
-1.4606791 3.2863381 1.508774
-1.407678 3.309387 1.508774
-1.660964 3.374022 1.50322
-1.60417 3.4116559 1.506932
-1.531208 3.445019 1.506932
-1.475648 3.4691811 1.506932
-1.399967 3.500407 1.506932
-1.173484 3.5826931 1.506932
-1.31312 3.739399 1.506722
-1.233645 3.766366 1.506722
-1.181584 3.783021 1.506722
-1.103664 3.806483 1.506722
-0.90663999 4.0767732 1.507159
-0.1623867 4.154386 1.50037
-0.69635522 4.3541808 1.507248
-0.43243271 4.3787489 1.504014
2.3170769 -4.0901799 1.518281
4.510684 -4.081943 1.518019
4.5860348 -3.9970989 1.518019
4.6695871 -3.899163 1.518019
-3.3943269 -2.4653809 1.513948
-3.437355 -2.388581 1.510554
-3.4868929 -2.315665 1.510554
-3.277648 -2.277602 1.517383
-3.3248839 -2.2080741 1.517383
-3.354985 -2.162065 1.517383
6.1944928 -2.1484139 1.5183769
-3.163727 -2.1010489 1.518067
-3.39218 -2.085434 1.513829
-3.192369 -2.0572701 1.518067
-3.427423 -2.0085659 1.510276
-3.235337 -1.989011 1.518067
-3.4691491 -1.935607 1.510276
-3.276643 -1.920204 1.518067
-3.3492839 -1.770713 1.5143549
-3.383965 -1.703498 1.5143549
-3.3985929 -1.653003 1.510643
-3.2287459 -1.62536 1.516511
-3.4326921 -1.580974 1.510643
-3.2832849 -1.512162 1.516511
-3.319103 -1.431834 1.516511
-3.335927 -1.368066 1.512642
-3.1689179 -1.367046 1.517249
-3.1931269 -1.309503 1.517249
-3.2198529 -1.242336 1.517249
-3.23772 -1.168298 1.513224
-3.259114 -1.107217 1.513224
-3.2803509 -1.042617 1.513224
5.264194 -0.59523678 1.514614
3.9317069 0.56855088 1.510276
-2.306349 2.3444231 1.5128911
-2.2651279 2.3842721 1.5128911
-2.2231519 2.4234591 1.5128911
-1.702666 2.9914351 1.513224
-1.21262 3.2311621 1.517249
-1.342332 3.356298 1.516511
-1.26685 3.375664 1.512642
-1.19766 3.4106021 1.516511
-1.07769 3.450388 1.516511
-1.327886 3.538301 1.510643
-1.252161 3.5658031 1.510643
-1.126731 3.6073999 1.510643
-1.052428 3.6297729 1.510643
-0.97500992 3.6609399 1.5143549
-0.89947432 3.680228 1.5143549
-0.8244651 3.707267 1.518067
-0.69271272 3.734129 1.518067
-1.0223759 3.8387909 1.510276
-0.9431712 3.859015 1.510276
-0.86443353 3.8869879 1.513829
-0.78371948 3.9135959 1.517383
-0.72799891 3.9243431 1.517383
-0.82190698 4.10429 1.510554
-0.76347142 4.115561 1.510554
-0.66250807 4.1425409 1.513948
-0.57608402 4.164937 1.517343
-0.60545772 4.3773012 1.510483
-0.5283888 4.3968019 1.5137171
4.101438 -4.5453749 1.527703
4.1905241 -4.4500589 1.525282
4.2773032 -4.3531222 1.522861
4.3611622 -4.2552242 1.52044
4.4500432 -4.1621852 1.52044
2.1352389 -3.9228151 1.526655
4.7585239 -3.8056681 1.52044
1.947009 -3.7584331 1.527526
4.8225069 -3.724257 1.52044
-3.0254631 -3.2983201 1.529889
-3.1038079 -2.878027 1.527526
-3.1979229 -2.419363 1.52449
-3.244489 -2.356549 1.52449
-3.0509491 -2.308171 1.529202
-3.0878611 -2.2427869 1.52549
-3.126405 -2.1725061 1.521778
-2.9911661 -2.0785289 1.5281169
-3.053992 -1.9680949 1.524248
-3.1029539 -1.907625 1.5281169
-3.3246419 -1.85498 1.521778
-3.134614 -1.836971 1.524248
-3.172775 -1.770246 1.524248
-3.2038071 -1.693802 1.52038
-3.037817 -1.6949461 1.529323
-3.0672419 -1.6216021 1.525298
-3.2589619 -1.58509 1.52038
-3.0990031 -1.560047 1.525298
-3.111814 -1.51352 1.521273
-3.15135 -1.451398 1.525298
-3.067986 -1.258183 1.525429
-2.943538 -1.207147 1.529471
-3.0936661 -1.1936491 1.525429
-2.9597671 -1.141986 1.525138
-3.1191061 -1.125497 1.525429
-2.9841061 -1.076784 1.525138
-3.131114 -1.063732 1.52125
-2.8668599 -1.034477 1.529403
-3.003824 -1.020488 1.525138
-3.1515169 -1.001669 1.52125
-2.885803 -0.98039258 1.529403
-3.023397 -0.96094811 1.525138
4.4555349 0.1072373 1.52342
-1.354458 3.184269 1.521273
-1.2849931 3.21293 1.521273
-1.1465009 3.264914 1.521273
-1.082809 3.3058579 1.529323
-1.034384 3.311739 1.525298
-0.96617132 3.332278 1.525298
-0.89526057 3.3615 1.529323
-0.82590318 3.37921 1.529323
-0.75517839 3.395715 1.529323
-0.63449818 3.4203191 1.529323
-0.5493561 3.4350231 1.529323
-1.1280431 3.44396 1.52038
-1.011757 3.489501 1.524248
-0.93503332 3.510838 1.524248
-0.86478412 3.538291 1.5281169
-0.78872788 3.546572 1.524248
-0.71340811 3.5624869 1.524248
-0.66436827 3.581337 1.5281169
-0.57521802 3.5967319 1.5281169
