# .PCD v0.7 - Point Cloud Data file format
VERSION 0.7
FIELDS x y z
SIZE 4 4 4
TYPE F F F
COUNT 1 1 1
WIDTH 1387
HEIGHT 1
VIEWPOINT 0 0 0 1 0 0 0
POINTS 1387
DATA ascii
-0.36485249 -0.034626685 0.53658265
-0.35507408 -0.034682933 0.53742862
-0.34552824 -0.034694009 0.53760445
-0.33535501 -0.034640461 0.53679079
-0.3255702 -0.034626719 0.53656888
-0.3149049 -0.034591243 0.53600889
-0.30452597 -0.03458311 0.53591073
-0.29488644 -0.034583043 0.5359031
-0.28524271 -0.034582552 0.53588516
-0.27501348 -0.034443121 0.53571761
-0.26508817 -0.034752544 0.53644121
-0.25536293 -0.034635883 0.53672189
-0.24519444 -0.034777585 0.53649282
-0.23488665 -0.034461301 0.53645176
-0.22488905 -0.034613781 0.5363673
-0.21536218 -0.034632407 0.53665322
-0.20493034 -0.03461615 0.53640395
-0.19461982 -0.034620836 0.53646678
-0.18502837 -0.034629926 0.53661478
-0.17530321 -0.034614556 0.53638017
-0.16500662 -0.034621976 0.5364911
-0.15460461 -0.034606338 0.53625256
-0.14499816 -0.034614343 0.53638256
-0.13530852 -0.034602698 0.53619379
-0.12499057 -0.03460484 0.53623641
-0.11472243 -0.034623165 0.5365203
-0.10505765 -0.03461634 0.53642082
-0.095442459 -0.034626868 0.53658164
-0.085054561 -0.03460516 0.53623879
-0.074706674 -0.034597479 0.53611743
-0.065092683 -0.034609631 0.53630859
-0.055422541 -0.034592457 0.53602803
-0.045116048 -0.034606382 0.53625429
-0.034802821 -0.034620918 0.53648973
-0.02514814 -0.034608454 0.53627801
-0.014911457 -0.03469725 0.53649771
-0.0046002422 -0.034532983 0.53639489
0.005154443 -0.034627151 0.53657919
0.014782719 -0.034586892 0.53596163
0.025106991 -0.034585942 0.53593528
0.03538755 -0.034548894 0.53535199
0.044585906 -0.034772523 0.53354448
0.053678099 -0.03788216 0.53179353
0.15803596 -0.039158206 0.53074998
0.16549093 -0.035527669 0.53258204
0.17489889 -0.034802921 0.53649729
0.18508582 -0.034644894 0.53685951
0.19540817 -0.034642965 0.53680867
0.20509733 -0.03464916 0.53690815
0.21487482 -0.034668751 0.53722423
0.22443593 -0.034652665 0.53698975
0.23491506 -0.03467365 0.53730124
0.24536528 -0.034687962 0.53752285
0.25491777 -0.034673072 0.53729075
0.26451993 -0.034664527 0.53717327
0.27498928 -0.034679778 0.53741294
0.28542975 -0.034691069 0.53758162
0.29506961 -0.034688316 0.53753573
0.30499539 -0.034718897 0.53799993
0.31493655 -0.034546606 0.53774756
0.32531822 -0.034869742 0.53786039
0.33526054 -0.034705628 0.53778821
0.34491423 -0.034703746 0.53776544
0.35466585 -0.034711562 0.53789282
0.36486745 -0.034696613 0.53765851
0.3752946 -0.03470299 0.53776026
0.38531774 -0.034735184 0.53825516
0.39532793 -0.034765478 0.53871185
0.40245205 -0.034783293 0.53898799
-0.413849 -0.025815584 0.53830677
-0.40488684 -0.025028938 0.53759199
-0.39486271 -0.02500603 0.53710192
-0.38508236 -0.024919648 0.53708261
-0.37504312 -0.025061151 0.53650004
-0.36530709 -0.025011426 0.53725225
-0.35462898 -0.024989218 0.53675264
-0.34496057 -0.024988243 0.53672177
-0.33519584 -0.024979485 0.53653818
-0.32553461 -0.024977339 0.53651017
-0.31477782 -0.024942767 0.53579247
-0.30454379 -0.024952302 0.53594381
-0.29502451 -0.024961073 0.53615296
-0.28501981 -0.024797171 0.5360648
-0.2748524 -0.025122102 0.5362829
-0.26495314 -0.024981692 0.53660208
-0.25509524 -0.024962591 0.53615808
-0.24543719 -0.02495937 0.53611481
-0.2351944 -0.02496746 0.53630799
-0.22473048 -0.024953794 0.5359872
-0.21519992 -0.024965491 0.53624994
-0.20486428 -0.024964388 0.53623205
-0.19449839 -0.02495973 0.53613007
-0.18484701 -0.024958542 0.53608912
-0.17518948 -0.024955207 0.53603309
-0.16499767 -0.024975086 0.53646177
-0.15459931 -0.024964189 0.53623462
-0.1449625 -0.024965612 0.53624743
-0.13526775 -0.024955342 0.53603303
-0.12494282 -0.024955271 0.53603113
-0.11467723 -0.024968471 0.53631121
-0.10503741 -0.024969276 0.53631884
-0.095406637 -0.024971683 0.53637743
-0.085061327 -0.024967005 0.53628564
-0.074709453 -0.024959888 0.5361377
-0.065073527 -0.024960835 0.53614533
-0.055396188 -0.024942962 0.5357756
-0.045114886 -0.024964884 0.53624767
-0.034801684 -0.024975719 0.5364669
-0.025138285 -0.024955975 0.5360561
-0.015493259 -0.024944965 0.53578818
-0.005172852 -0.024948392 0.53586817
0.005149873 -0.024957243 0.53607142
0.014773683 -0.02493847 0.53565043
0.02508493 -0.024928629 0.53544194
0.035233334 -0.024966337 0.5343802
0.041411884 -0.027280593 0.53103125
0.17600192 -0.025431283 0.53341258
0.18534248 -0.025139183 0.53652644
0.19518326 -0.024962878 0.53619123
0.20495641 -0.024978733 0.53653824
0.21473636 -0.024995225 0.53687769
0.22451311 -0.025008421 0.53717339
0.23501909 -0.025025234 0.53754026
0.24527627 -0.02501604 0.53732902
0.25497383 -0.025018767 0.53740823
0.26458779 -0.025014831 0.53731114
0.27497503 -0.024907172 0.53773612
0.28506246 -0.025150558 0.53729904
0.29505426 -0.025024222 0.53750753
0.30483034 -0.025033563 0.53770912
0.31493425 -0.02519054 0.53774285
0.32513189 -0.024866339 0.53755295
0.33527976 -0.025038308 0.53781873
0.34496716 -0.025039349 0.53784704
0.3547596 -0.025048183 0.53803569
0.36454245 -0.025175747 0.53787738
0.37506959 -0.024927199 0.53817129
0.38543013 -0.025066534 0.53841341
0.3951703 -0.025069753 0.53849751
0.4019897 -0.025063898 0.538369
-0.41254601 -0.015484359 0.53918058
-0.40517229 -0.015485908 0.53731245
-0.39512107 -0.015260634 0.5366385
-0.3852123 -0.015350416 0.53710967
-0.37528133 -0.015399534 0.53687501
-0.36512405 -0.015299584 0.53711134
-0.35448477 -0.015333395 0.53653312
-0.34479547 -0.015331618 0.53646421
-0.33492589 -0.01532114 0.53610712
-0.32501024 -0.015339775 0.53678358
-0.31456608 -0.015473085 0.53630298
-0.30460244 -0.015083604 0.53551239
-0.29499665 -0.015397226 0.535905
-0.28474256 -0.015324822 0.53624099
-0.27462211 -0.015336183 0.53664535
-0.26497796 -0.015336708 0.53665054
-0.25507888 -0.015320143 0.53612489
-0.24536347 -0.015464523 0.53642631
-0.23498908 -0.015197836 0.53624517
-0.22463989 -0.015311034 0.53577048
-0.21507967 -0.015317264 0.5359515
-0.20553784 -0.015323794 0.53619134
-0.19506447 -0.015312376 0.53579473
-0.18473047 -0.015310926 0.53575259
-0.17520985 -0.015320649 0.53609437
-0.16492407 -0.015324834 0.53622311
-0.15458538 -0.015323696 0.5361861
-0.14488924 -0.015317556 0.53597707
-0.13522798 -0.015314361 0.53587514
-0.12494445 -0.01531888 0.53604019
-0.11465778 -0.015323865 0.53621674
-0.10500718 -0.015322499 0.53616571
-0.095416948 -0.015329922 0.53643608
-0.085043736 -0.015322784 0.53616947
-0.07467556 -0.015315147 0.53589535
-0.065034971 -0.015313 0.5358265
-0.055401169 -0.01531299 0.535824
-0.045093041 -0.015318311 0.53598201
-0.034785137 -0.015324247 0.53621924
-0.025146645 -0.015324799 0.53624737
-0.015487795 -0.015304852 0.53556627
-0.005170315 -0.015306323 0.53559387
0.0051504429 -0.015322237 0.53611219
0.01477267 -0.015305047 0.5355894
0.025043895 -0.015280691 0.53465188
0.033434711 -0.016098175 0.53239733
0.17828141 -0.017512074 0.53096426
0.18547568 -0.015531609 0.53440988
0.19532028 -0.015333038 0.53656369
0.20509747 -0.015343206 0.53691083
0.21474603 -0.015343009 0.53690052
0.22456582 -0.015354126 0.53730094
0.23493347 -0.015356193 0.53734362
0.2453244 -0.015358381 0.53743368
0.25496846 -0.015358261 0.53739798
0.26446873 -0.015348773 0.5370689
0.27488989 -0.015352873 0.5372209
0.28507555 -0.015344519 0.53691584
0.29485342 -0.015351 0.53714019
0.30464968 -0.015357934 0.53739023
0.31490797 -0.015210587 0.53769803
0.3252106 -0.015525455 0.53768265
0.33504033 -0.015359618 0.53743625
0.34468779 -0.015359311 0.5374108
0.35468709 -0.015373622 0.53792334
0.36490652 -0.01522256 0.53812021
0.37486851 -0.015523259 0.53760815
0.38501456 -0.015369941 0.53783149
0.39509019 -0.015386347 0.53838784
0.40205625 -0.015388946 0.53845823
-0.41261545 -0.0055119502 0.53841072
-0.40488055 -0.0047965352 0.53628927
-0.3950606 -0.0049984045 0.53643751
-0.38524991 -0.0050036241 0.5371629
-0.37504095 -0.005057449 0.53651106
-0.3650561 -0.0049491217 0.53699607
-0.35474402 -0.0050014094 0.53692639
-0.34494457 -0.0047913059 0.53606367
-0.33533677 -0.0051616644 0.53604507
-0.32527691 -0.0051414701 0.53639883
-0.31512812 -0.004667087 0.53595603
-0.30499831 -0.0051613175 0.53595084
-0.29524496 -0.0049977144 0.53655577
-0.28490412 -0.0049978537 0.53654301
-0.27451763 -0.0049986928 0.53643972
-0.26463595 -0.0049945973 0.53595984
-0.2550236 -0.0049947677 0.53600889
-0.24554238 -0.0049980027 0.5363459
-0.23504159 -0.0049940939 0.53595692
-0.22470866 -0.0049932012 0.5359351
-0.2149957 -0.0049903677 0.53574115
-0.20526649 -0.0049450216 0.53598058
-0.19499737 -0.0050376137 0.53603625
-0.18457739 -0.0049881497 0.53530586
-0.17495976 -0.0049887439 0.53532815
-0.16475396 -0.0049910704 0.53567398
-0.15445912 -0.0049918848 0.53575003
-0.14485464 -0.0049919174 0.53584826
-0.13519731 -0.0049919034 0.5357545
-0.12494575 -0.0049940837 0.53604692
-0.1146607 -0.0049958378 0.53622979
-0.10497968 -0.0049944678 0.53602225
-0.095409945 -0.0049975617 0.53639948
-0.085050389 -0.0049956129 0.53621668
-0.074698329 -0.0049935267 0.53605348
-0.065059327 -0.0049941107 0.53603345
-0.055406243 -0.0049922052 0.53586608
-0.045048788 -0.0049885362 0.53545111
-0.034761649 -0.0049933637 0.5358749
-0.025137363 -0.004994445 0.53604019
-0.015221251 -0.0048189806 0.53610379
-0.0049348813 -0.0051570758 0.53525823
0.0051378347 -0.0049832384 0.53464288
0.014766125 -0.0049880971 0.53528804
0.024844291 -0.0051077059 0.53382069
0.031451169 -0.0081256265 0.53074998
0.18655948 -0.0059671509 0.53185499
0.19530943 -0.0050859051 0.53632277
0.20511927 -0.0050031706 0.5369665
0.21474974 -0.0050025051 0.53691071
0.22451292 -0.0050062654 0.53717411
0.23489667 -0.0050061727 0.53725964
0.24513663 -0.0050046155 0.53702456
0.25465742 -0.0050012842 0.53674108
0.26476133 -0.0048190979 0.53691679
0.27505472 -0.0051876185 0.53691465
0.28499505 -0.005000134 0.53676337
0.29478833 -0.0050023226 0.53702229
0.30493572 -0.0048345737 0.53709835
0.31533837 -0.0051819752 0.53726697
0.32538608 -0.0050079529 0.53744638
0.33482665 -0.0050045075 0.53709376
0.34449312 -0.0050039776 0.53710711
0.3550013 -0.0048751095 0.53759074
0.36511028 -0.0051496392 0.53728014
0.37537697 -0.0050115394 0.5378772
0.38508075 -0.0050125974 0.53792626
0.39507213 -0.0050115143 0.53786248
0.40168205 -0.0050091669 0.53758752
-0.41459844 0.0060193883 0.53814226
-0.40499908 0.0054934104 0.5363341
-0.3948127 0.0051795924 0.53646922
-0.38497391 0.0053367601 0.53677809
-0.37484139 0.0053293481 0.53608668
-0.36501759 0.0052460758 0.53597504
-0.35485432 0.0054060472 0.53618634
-0.34475207 0.0053344988 0.53639787
-0.33503851 0.0053326301 0.5362857
-0.32528797 0.0053321207 0.5361045
-0.31505075 0.0053327088 0.53625655
-0.3048476 0.0053359931 0.53647953
-0.29532728 0.0053378781 0.53670406
-0.28497288 0.0053101815 0.53650665
-0.27452034 0.0053606178 0.53622991
-0.26462767 0.0053303703 0.53594387
-0.25497922 0.0053295679 0.53591323
-0.24533929 0.005329553 0.5359031
-0.23500359 0.0053296601 0.53587049
-0.22460398 0.0053271209 0.53568631
-0.21492378 0.0053255106 0.5355612
-0.2053159 0.0053250152 0.53561461
-0.19496036 0.0053250832 0.53550667
-0.18451715 0.0053228992 0.53513277
-0.17494564 0.0053235623 0.53528577
-0.1648147 0.00525109 0.53558636
-0.1546164 0.0054128049 0.53591508
-0.14484893 0.005328713 0.53582394
-0.13515013 0.0053263986 0.53556883
-0.12497576 0.0053321486 0.53617626
-0.1146417 0.0053311326 0.5361377
-0.10489243 0.0053261472 0.5355764
-0.095292889 0.0053270976 0.53573728
-0.085009314 0.0053298371 0.53596872
-0.074734151 0.0053334814 0.53630602
-0.065001287 0.005325587 0.53554845
-0.055383746 0.005327139 0.53566581
-0.045083441 0.0053299824 0.53586161
-0.034753926 0.0053282636 0.53573471
-0.025127536 0.0053283772 0.53584945
-0.015496436 0.0053291619 0.53589541
-0.0051690568 0.0053243744 0.5353772
0.0051275492 0.0053115049 0.53425759
0.014708864 0.005297136 0.53319907
0.023029681 0.004984891 0.53221172
0.18856031 0.0049645654 0.53096157
0.19562422 0.0053247795 0.53549701
0.20503959 0.0053383652 0.53675771
0.21471985 0.0053387145 0.53683668
0.22500074 0.005337738 0.53669178
0.23545723 0.0053402637 0.53696424
0.24505697 0.0053393249 0.5368495
0.25469479 0.0053385296 0.53681886
0.26499876 0.005265139 0.53692514
0.27518597 0.0054207887 0.53666747
0.28518954 0.0053417366 0.53712749
0.29504547 0.0053454293 0.53749239
0.30472445 0.0053459429 0.53752285
0.31491095 0.0053437939 0.53723657
0.3252528 0.0053435005 0.53722692
0.3348453 0.0053424519 0.53712237
0.34465301 0.0054250681 0.53718495
0.3550103 0.0052670958 0.53723639
0.36519498 0.0053425822 0.53712499
0.37474254 0.0053396323 0.5369693
0.38470989 0.0054259901 0.5372526
0.39479545 0.0052626617 0.53786707
0.40181637 0.0053536943 0.53813678
-0.41454092 0.014431075 0.5377115
-0.40510181 0.015030225 0.53564823
-0.39500451 0.014943887 0.53530163
-0.38529634 0.015073313 0.53516585
-0.37490818 0.014897917 0.53532499
-0.36488509 0.014956113 0.53561997
-0.35525662 0.014817297 0.53624755
-0.34483355 0.015125294 0.53603119
-0.33484855 0.014966139 0.53598213
-0.32515952 0.014962427 0.53589028
-0.31462893 0.014952548 0.53554237
-0.30509678 0.014991899 0.5369184
-0.29542556 0.01499027 0.53688008
-0.28504106 0.014851062 0.53646517
-0.27466857 0.01510971 0.53631359
-0.26478279 0.014974262 0.53625751
-0.25498429 0.014965069 0.53592348
-0.24531369 0.014962852 0.53584689
-0.23532593 0.014818023 0.53552932
-0.2251419 0.015087078 0.53575701
-0.21497491 0.014957407 0.53568619
-0.20521033 0.014947854 0.53533924
-0.194929 0.014949972 0.53542423
-0.184651 0.014952627 0.53552043
-0.17503159 0.014954011 0.53554595
-0.16531698 0.014945445 0.53526533
-0.15504837 0.014948109 0.53541082
-0.14477837 0.014953658 0.53556627
-0.13516086 0.014955386 0.53560978
-0.12510693 0.01493922 0.53596997
-0.11462168 0.014965815 0.5350368
-0.10482048 0.014943592 0.5352143
-0.095261358 0.014953748 0.53556126
-0.084997736 0.014963401 0.53589505
-0.074713007 0.014970151 0.53615296
-0.064976722 0.014947373 0.53534693
-0.055372853 0.014953264 0.53555864
-0.045085263 0.014962524 0.53588831
-0.034751166 0.014957087 0.53568363
-0.025109241 0.014950871 0.53545147
-0.015494732 0.014962739 0.53587753
-0.0051669851 0.014925797 0.53454697
0.0036110713 0.013994892 0.53341806
0.015089604 0.012594572 0.53119999
0.020995839 0.011636402 0.53062505
0.18904679 0.014132124 0.53056246
0.19548972 0.014941816 0.5351249
0.20509155 0.014991372 0.53689539
0.2145849 0.014979905 0.53649729
0.22505261 0.0149893 0.53681701
0.2353238 0.01498381 0.53666073
0.24508065 0.014990699 0.53690052
0.25467902 0.015063712 0.53655499
0.26453397 0.014908834 0.53702599
0.27475223 0.014992997 0.53695321
0.28509894 0.014993211 0.53695661
0.29487249 0.014998869 0.53717852
0.30442005 0.014993326 0.53698468
0.31505662 0.015007292 0.53748435
0.32538006 0.015006137 0.53743625
0.33514264 0.015011329 0.5375995
0.34514433 0.014995575 0.53705138
0.35524914 0.014902797 0.53681517
0.36541763 0.015094468 0.537615
0.37489533 0.01499939 0.53718871
0.38505864 0.014920153 0.53705472
0.39520776 0.01522421 0.53705984
0.40177172 0.014572003 0.53749996
-0.4137882 0.024871193 0.53689587
-0.404789 0.024545299 0.5347299
-0.3950617 0.024581192 0.53550255
-0.38543239 0.024580862 0.53549999
-0.37518978 0.024584098 0.53560275
-0.36475933 0.024575375 0.53543377
-0.35518077 0.024764605 0.53613448
-0.34487203 0.024448019 0.53609127
-0.33517656 0.024625728 0.53650755
-0.32526341 0.024758026 0.53641915
-0.31479603 0.024276983 0.53549498
-0.30489779 0.024748957 0.53583723
-0.29520783 0.024624204 0.53648716
-0.28507268 0.024581289 0.53556371
-0.27507123 0.02442994 0.53564858
-0.26501957 0.024764061 0.53609616
-0.25530976 0.024630062 0.53660965
-0.24508081 0.024622628 0.53645122
-0.23494244 0.024424966 0.5359627
-0.22483245 0.024722021 0.53524292
-0.21488547 0.024577886 0.53546435
-0.20506351 0.024554135 0.53495413
-0.19486023 0.024567606 0.5352366
-0.18450585 0.024560951 0.53509945
-0.17484869 0.024555018 0.53498733
-0.16522419 0.024554363 0.53496683
-0.15493962 0.024558397 0.53503364
-0.14474663 0.024577593 0.53545141
-0.1351767 0.024587115 0.53567082
-0.125356 0.024487428 0.53532499
-0.11496098 0.024622839 0.5348295
-0.10475576 0.024550861 0.5348776
-0.095147163 0.024552038 0.53492349
-0.084934346 0.024578435 0.53549325
-0.074591771 0.024567669 0.53528064
-0.064898305 0.024542307 0.53470653
-0.055240951 0.024656052 0.53480518
-0.045014713 0.024557237 0.53505796
-0.03471281 0.024559002 0.53509688
-0.025101263 0.024569677 0.53529853
-0.015490678 0.024590153 0.53573477
-0.0049903682 0.0249514 0.53564584
0.0038316299 0.026156778 0.53442556
0.014975055 0.028559051 0.53064585
0.19521037 0.0248008 0.53427273
0.20491879 0.024621211 0.53644401
0.21473993 0.024752881 0.5363456
0.2252031 0.024508646 0.53674763
0.23538373 0.024640033 0.53679854
0.24493593 0.024629906 0.53658414
0.25509778 0.024612727 0.53621858
0.26524028 0.024811568 0.53658336
0.27491346 0.024478989 0.53673351
0.28519025 0.024654167 0.53712767
0.29480869 0.024651259 0.53706378
0.30475837 0.024808189 0.53701919
0.31507286 0.024493918 0.53704709
0.32533285 0.024664715 0.53735715
0.33511904 0.024729077 0.53705281
0.34508786 0.024548301 0.53653765
0.35507607 0.024748184 0.53713351
0.36475036 0.024581421 0.53722465
0.37500471 0.024665613 0.53734434
0.38481495 0.024675626 0.53755343
0.39491302 0.024660129 0.53720969
0.40143666 0.024637843 0.53670537
-0.41330951 0.034818962 0.53680283
-0.40525585 0.034745935 0.53588343
-0.39509371 0.034897137 0.53554463
-0.38464972 0.035032742 0.53504092
-0.37520748 0.034846727 0.53587282
-0.36472073 0.034786347 0.53474122
-0.3549878 0.034883413 0.53597343
-0.34448728 0.03492444 0.5359866
-0.33519998 0.034962319 0.5365445
-0.32516873 0.034846194 0.53606802
-0.31528509 0.034987547 0.53560907
-0.3048996 0.034884494 0.53536338
-0.29478502 0.034907065 0.53571653
-0.28509554 0.034900971 0.53560942
-0.27547526 0.034901842 0.53562278
-0.26487443 0.034865022 0.53505278
-0.25485399 0.034902629 0.53565168
-0.24528679 0.034912676 0.53578794
-0.23545229 0.034881867 0.53532368
-0.22484164 0.034836613 0.53461921
-0.21497513 0.034906458 0.53568977
-0.20518461 0.034879453 0.53527015
-0.19524041 0.034696281 0.53515691
-0.184883 0.035021689 0.5348894
-0.17481232 0.034852963 0.53487509
-0.16513897 0.034841616 0.53469193
-0.15495656 0.034866933 0.535092
-0.14469221 0.034876179 0.53524774
-0.13504265 0.034869369 0.53514069
-0.12529151 0.034833442 0.5345782
-0.11501296 0.034840316 0.53467184
-0.10475498 0.034853004 0.53487289
-0.095096849 0.034837957 0.53464061
-0.085282147 0.034693442 0.53511012
-0.07493943 0.035000779 0.53455514
-0.06486164 0.034821194 0.5344016
-0.055301894 0.034907769 0.53437716
-0.044932541 0.034799878 0.53406429
-0.034641314 0.034796935 0.53401119
-0.025073256 0.034841366 0.53470749
-0.0154685 0.034855001 0.53492653
-0.0053355345 0.035071824 0.5333395
0.0051173144 0.035403732 0.53276527
0.014619789 0.035514753 0.53308332
0.021144552 0.037362225 0.53232962
0.19558389 0.035360396 0.53379488
0.20473754 0.034924828 0.53596652
0.21489185 0.034766417 0.53634793
0.22517058 0.035131011 0.53633112
0.23543303 0.034984928 0.53690845
0.24498475 0.034970917 0.53669196
0.25480831 0.035014883 0.53646821
0.26506826 0.034897268 0.53640765
0.27505744 0.03493927 0.53620303
0.28500217 0.034976285 0.53677225
0.2947771 0.034991194 0.53700668
0.30453563 0.034796242 0.53669286
0.31507912 0.03516892 0.53711885
0.32512143 0.034992039 0.53700894
0.33486676 0.035002921 0.53715622
0.3450591 0.034836728 0.53741878
0.35492033 0.035301298 0.53710306
0.36529648 0.034931432 0.53768641
0.37535882 0.035046156 0.5378527
0.38511992 0.035054695 0.53797978
0.39462692 0.035116378 0.53762484
0.40181538 0.034850717 0.53805441
-0.41461501 0.045585468 0.53732258
-0.40516847 0.045383986 0.53571886
-0.39569414 0.045281347 0.53635961
-0.38503096 0.045156468 0.53577721
-0.3747879 0.045319214 0.53585237
-0.36467192 0.04519134 0.53619081
-0.35497433 0.045566373 0.53654891
-0.3447932 0.045081437 0.53581846
-0.33511853 0.045284208 0.53641319
-0.32518721 0.045244101 0.53593618
-0.31480151 0.045137323 0.53466076
-0.30501452 0.04504551 0.53454989
-0.29496089 0.045235924 0.53495008
-0.28494042 0.045192331 0.53531885
-0.2753776 0.045201782 0.53543371
-0.26515871 0.045218669 0.53562725
-0.25500867 0.045249619 0.53597963
-0.24543343 0.045259614 0.53610456
-0.23534302 0.045172226 0.53507662
-0.22502486 0.045171011 0.53505367
-0.21462016 0.045146994 0.53480095
-0.20500407 0.045148503 0.53480357
-0.19524728 0.045084983 0.53500021
-0.18490161 0.045223761 0.53477073
-0.17470634 0.045128405 0.53455341
-0.165231 0.045164663 0.53498983
-0.15486543 0.045146488 0.5347746
-0.14459148 0.045155592 0.53487498
-0.13497001 0.045153711 0.53485465
-0.12526028 0.045118809 0.5344463
-0.11496735 0.045119468 0.53445524
-0.10468134 0.045123789 0.53450239
-0.09507335 0.045124434 0.53450245
-0.085471906 0.045126833 0.53454852
-0.075148761 0.045111664 0.53436381
-0.064794615 0.045068484 0.53383934
-0.055199128 0.04507051 0.53387243
-0.044906814 0.0450611 0.5337702
-0.034636471 0.045074452 0.53392595
-0.025044555 0.045088492 0.53409177
-0.015456858 0.045125753 0.53452802
-0.0051583457 0.045109469 0.53433043
0.005130142 0.045091312 0.53414035
0.014735265 0.045090213 0.53415293
0.021506727 0.044915758 0.53208339
0.18891317 0.048164126 0.53018749
0.19486783 0.045034558 0.53342265
0.20476957 0.045254607 0.53604847
0.21516511 0.045269083 0.53622979
0.22532457 0.045234986 0.535824
0.23516864 0.045275688 0.53630608
0.24480285 0.04527501 0.53629345
0.25497463 0.045246959 0.53595752
0.26548135 0.045277584 0.53632903
0.27504531 0.045265879 0.53617853
0.28485176 0.04529196 0.53649223
0.29462138 0.045266546 0.53651983
0.30503121 0.045333914 0.53669089
0.31537911 0.045322802 0.53685969
0.32513335 0.0453372 0.53702801
0.3348583 0.045346435 0.53714281
0.34500155 0.045511533 0.53725237
0.35519874 0.045183878 0.53709126
0.36508358 0.045331657 0.53696167
0.37495154 0.045357719 0.5372678
0.38484141 0.045384634 0.53759176
0.39451623 0.045386795 0.53760463
0.40159795 0.044972319 0.53815275
-0.42097887 0.051017314 0.53874999
-0.41442713 0.05475343 0.53731054
-0.4051044 0.054934256 0.53618973
-0.39525792 0.054720875 0.53613317
-0.38517839 0.054798059 0.53514534
-0.37519464 0.054847281 0.53561157
-0.36477208 0.054829713 0.53545159
-0.35477832 0.054879908 0.53593975
-0.34484038 0.054941602 0.53653574
-0.33464789 0.054851595 0.53565818
-0.32488602 0.054829344 0.5354414
-0.31483606 0.05475539 0.53472203
-0.30493569 0.054704279 0.53421682
-0.29549575 0.054734971 0.53451532
-0.28538254 0.054770019 0.53486151
-0.27500954 0.054755073 0.53471422
-0.264763 0.054766618 0.53483045
-0.25482339 0.054843135 0.5355894
-0.24527866 0.054861881 0.53576779
-0.23546268 0.054820474 0.53534949
-0.22493419 0.054767281 0.53483498
-0.21439809 0.054707129 0.53424734
-0.20463404 0.054664481 0.5338366
-0.19526853 0.054729603 0.53447181
-0.18510915 0.054769076 0.53485936
-0.17479852 0.054767359 0.53483409
-0.16505781 0.054724123 0.53442341
-0.15527178 0.054617912 0.53419256
-0.14507774 0.054803167 0.53446132
-0.13492802 0.054751825 0.53468615
-0.12521644 0.054708734 0.53426027
-0.11490933 0.054700542 0.53418535
-0.10466967 0.054727025 0.53444386
-0.095113344 0.054756228 0.53472704
-0.085413881 0.054700963 0.53418374
-0.075089969 0.054675687 0.53393739
-0.064578168 0.055095885 0.53311116
-0.055274375 0.054823063 0.53329414
-0.044854019 0.054594971 0.5331496
-0.034607258 0.054627907 0.53347963
-0.025012562 0.054617148 0.53338271
-0.015425278 0.05462281 0.53344393
-0.0050650784 0.054696232 0.53321934
0.0051155169 0.05521949 0.53258699
0.014526599 0.054913443 0.53223568
0.023204278 0.055388521 0.53142107
0.1880369 0.05615088 0.5311029
0.19528402 0.054741509 0.53457135
0.20463061 0.054853953 0.53568619
0.21501553 0.054872204 0.53585488
0.22530602 0.054864611 0.53577799
0.23516786 0.05491823 0.53630602
0.24467868 0.054888152 0.53602034
0.25505394 0.054899156 0.53612483
0.26528397 0.05487882 0.53593111
0.27510807 0.054916367 0.53629845
0.28485852 0.054869246 0.53610033
0.29471949 0.055040091 0.53637487
0.30484322 0.054847457 0.5363614
0.31517699 0.054938778 0.53651524
0.32501099 0.054971028 0.53682655
0.33459893 0.054961137 0.53672707
0.34488621 0.054952566 0.53664732
0.35522699 0.054951649 0.53665304
0.36482531 0.054944996 0.53658152
0.37478295 0.054991312 0.53702551
0.38468084 0.055026911 0.53736734
0.39474371 0.055133257 0.53762025
0.40104508 0.054732721 0.537875
-0.42017937 0.064943783 0.5395
-0.41462308 0.065257765 0.53733331
-0.40481427 0.064970516 0.53625625
-0.39483705 0.064958192 0.53625977
-0.38477302 0.064477518 0.536075
-0.37502581 0.064851969 0.53598851
-0.36520064 0.064533345 0.53608167
-0.35512677 0.064578921 0.53646415
-0.34483442 0.064585432 0.53652543
-0.33485001 0.064520977 0.53598219
-0.32457092 0.065006927 0.53504324
-0.31444138 0.064974867 0.53405356
-0.30502591 0.065012679 0.53437716
-0.29508707 0.065090857 0.53501964
-0.28476417 0.065086447 0.53498662
-0.27498367 0.065048069 0.53466737
-0.26528236 0.064966336 0.53468412
-0.25522673 0.065184705 0.53515476
-0.24495897 0.064953357 0.5353474
-0.2352993 0.065085672 0.53498006
-0.22554347 0.064989246 0.53487724
-0.21487337 0.065032542 0.53391659
-0.20484686 0.065015055 0.53439057
-0.1952977 0.065035157 0.53454906
-0.1852293 0.064794801 0.5340296
-0.17511785 0.065187648 0.53443855
-0.16495748 0.06498009 0.53409821
-0.15525262 0.064937197 0.53374773
-0.14505541 0.064974852 0.53406239
-0.13495634 0.065063499 0.53479689
-0.12514468 0.06496051 0.53395081
-0.11482306 0.064941309 0.53379101
-0.10458852 0.064970084 0.5340268
-0.095052376 0.06501317 0.53438604
-0.085371025 0.064955376 0.53391504
-0.075054981 0.064928882 0.53369153
-0.064804547 0.065293513 0.53281611
-0.054958701 0.064995773 0.53277779
-0.044859745 0.064870425 0.53320718
-0.034570135 0.064830877 0.5328905
-0.024963239 0.064762078 0.53232586
-0.015397707 0.064785108 0.53250676
-0.0052181049 0.0648745 0.53261691
0.0051119826 0.065440059 0.53226018
0.014838449 0.065111265 0.5321635
0.024670351 0.065221801 0.53221339
0.031770408 0.067410007 0.53102779
0.18593797 0.065754838 0.53257501
0.19500385 0.065276675 0.53527558
0.20478202 0.065305673 0.53535372
0.21506481 0.06496454 0.53538728
0.22529902 0.06518016 0.53576118
0.2351485 0.064553618 0.53626269
0.24492875 0.06518212 0.53566891
0.25496319 0.064971983 0.53544062
0.26500821 0.065065004 0.53552264
0.27481943 0.064808398 0.53573793
0.28466731 0.064954974 0.53614378
0.29508537 0.064559363 0.5363124
0.30510476 0.0650784 0.5356341
0.3149606 0.064666875 0.53628504
0.32515454 0.064650938 0.53706378
0.3348321 0.064747982 0.53675485
0.34511942 0.064482749 0.53673387
0.35477877 0.064520232 0.53597695
0.36471328 0.065026104 0.53577626
0.37498808 0.064433493 0.53679162
0.38475063 0.064698555 0.53746438
0.39452332 0.064717077 0.53761476
0.40105671 0.06476891 0.53804475
-0.42026258 0.073030956 0.53783333
-0.41522127 0.074451521 0.53787488
-0.40519333 0.07543461 0.53606004
-0.39520213 0.074793294 0.53605253
-0.38509974 0.074757971 0.53564036
-0.37473166 0.075287089 0.5354495
-0.36521676 0.075122446 0.53664786
-0.35530946 0.074775949 0.5363254
-0.34496936 0.074738994 0.53578568
-0.33475205 0.074820802 0.53582579
-0.32505235 0.075365514 0.53558004
-0.31495696 0.075383902 0.53492594
-0.30515027 0.075337328 0.53459436
-0.29577795 0.075398386 0.53502548
-0.28509235 0.075121775 0.53397912
-0.27502474 0.07543391 0.53433329
-0.26510918 0.075518869 0.53534991
-0.25476849 0.075344726 0.53524005
-0.24515311 0.075205348 0.53520107
-0.23511295 0.075329468 0.53455347
-0.22549666 0.075328201 0.53454083
-0.21531841 0.075070873 0.53366172
-0.20495667 0.075287499 0.53335637
-0.19531402 0.075335756 0.5345943
-0.18526308 0.075157478 0.53331882
-0.1750785 0.075195983 0.53359824
-0.16491376 0.075246327 0.53395909
-0.15519758 0.075190514 0.53355867
-0.14499544 0.07523001 0.53383476
-0.13466281 0.075200468 0.53363258
-0.12498039 0.075146765 0.5332551
-0.11479823 0.075207934 0.53367871
-0.10450275 0.075193465 0.53358161
-0.094913684 0.075196698 0.5336045
-0.085305601 0.075184785 0.53351271
-0.074954972 0.075107269 0.53296864
-0.064666837 0.075084388 0.5328061
-0.055097468 0.075096056 0.53288275
-0.044828486 0.075087436 0.53282815
-0.03453109 0.075012654 0.53229082
-0.024943892 0.074960351 0.53192097
-0.015388019 0.074993603 0.53216076
-0.0051374407 0.074998572 0.53220093
0.0051155649 0.075049363 0.53255868
0.014681975 0.075009562 0.53226799
0.024928879 0.074991025 0.53213847
0.033421215 0.075176239 0.53157258
0.17779551 0.076034263 0.53114164
0.18527088 0.075483553 0.53433335
0.1947792 0.075403504 0.53507912
0.20509794 0.075410075 0.53511393
0.2155157 0.075449817 0.53538519
0.22518222 0.075463697 0.53548729
0.23493366 0.074813232 0.53577006
0.24441247 0.075280935 0.53573281
0.25477993 0.075472184 0.53555137
0.26536727 0.075415872 0.53592998
0.27483097 0.075085372 0.53576165
0.28480479 0.075045213 0.53566295
0.29532099 0.074960344 0.53615409
0.30518243 0.07543204 0.53604758
0.31522667 0.07500051 0.53647047
0.32486582 0.074927375 0.53658706
0.33519021 0.074926674 0.53657222
0.34526032 0.074868165 0.5361563
0.35540465 0.074976206 0.53692186
0.36474121 0.075023107 0.53609079
0.37462419 0.075105563 0.53646219
0.38496846 0.075198814 0.53750211
0.39475101 0.074910283 0.53687918
0.40094882 0.07447271 0.5371806
-0.4205856 0.084379934 0.53850001
-0.41558599 0.085149325 0.53757614
-0.40494967 0.085236676 0.53543031
-0.39536297 0.085156016 0.53591061
-0.38544819 0.085202463 0.53567255
-0.37509134 0.085033119 0.53559089
-0.36529803 0.085197799 0.53697687
-0.3547217 0.085394941 0.53656369
-0.34435645 0.085136689 0.53578317
-0.33460778 0.085106999 0.53559434
-0.32505968 0.085128807 0.53572959
-0.31545237 0.085135512 0.53576773
-0.3052851 0.084985197 0.53482908
-0.29537392 0.085149288 0.53486788
-0.28499004 0.084876217 0.53429896
-0.27533653 0.084869593 0.53493869
-0.26500061 0.085061133 0.53530806
-0.25459209 0.085027054 0.53509694
-0.24477425 0.08495947 0.53466827
-0.2347911 0.084825106 0.53381896
-0.22518775 0.084823422 0.53381121
-0.21549352 0.084783681 0.53356379
-0.20516205 0.08476238 0.53342861
-0.19505455 0.084834933 0.5338853
-0.18528432 0.084989138 0.53400493
-0.17491375 0.084667481 0.53362954
-0.16490264 0.084842324 0.53392863
-0.1553435 0.084863529 0.53405869
-0.14500341 0.08483012 0.53386152
-0.13455825 0.084727518 0.53321671
-0.12489891 0.084679507 0.5329082
-0.11525943 0.08463259 0.53314006
-0.10497648 0.08476124 0.53296149
-0.094839185 0.084723368 0.5331862
-0.085303083 0.084771909 0.53349745
-0.074941948 0.084785461 0.53297597
-0.064697832 0.08470355 0.53305364
-0.055105008 0.08468692 0.53295666
-0.044809353 0.084630802 0.53260487
-0.034530357 0.085261054 0.53227913
-0.025037026 0.084670573 0.53216511
-0.015386768 0.084549934 0.53209436
-0.0051943716 0.08461953 0.53192323
0.00511511 0.084614374 0.53249234
0.014761861 0.084675185 0.53219515
0.024922958 0.085220017 0.53201938
0.034901146 0.085306294 0.53169495
0.043263573 0.088138416 0.53074342
0.16775857 0.087669745 0.53075004
0.17536107 0.085125737 0.53283334
0.18495719 0.084930554 0.53449237
0.1949005 0.085118227 0.53482372
0.20506868 0.084815063 0.5345695
0.21557242 0.085094452 0.53552562
0.22539273 0.085168622 0.53598726
0.23499039 0.085155874 0.53590059
0.2450857 0.085182071 0.53559762
0.25530425 0.084998585 0.53543752
0.26541027 0.085199587 0.5361836
0.27481249 0.085127674 0.53572696
0.28439939 0.085112996 0.53563774
0.29481298 0.085140392 0.53581691
0.30531606 0.085191324 0.53613514
0.31505138 0.085217103 0.53630096
0.32491484 0.085277714 0.53666836
0.3350043 0.085213304 0.53627455
0.34529626 0.085204661 0.53621167
0.35524854 0.085279435 0.53668618
0.36480534 0.08531478 0.53638983
0.37483513 0.085188091 0.53611577
0.38556847 0.08521942 0.53683496
0.39534697 0.085307531 0.53685713
0.40126076 0.085392676 0.53739291
-0.42093003 0.098740935 0.53868747
-0.41526079 0.094829112 0.53694952
-0.40477133 0.094739623 0.53561211
-0.39484614 0.094912894 0.53539211
-0.38500065 0.094780304 0.53585714
-0.37506291 0.094877183 0.53640562
-0.36538374 0.094868124 0.53634942
-0.35500035 0.094854675 0.53627211
-0.3443321 0.094761528 0.53574485
-0.3347235 0.09476734 0.53578055
-0.32497856 0.094733529 0.5355944
-0.31523409 0.094698049 0.53539801
-0.30497846 0.09478984 0.53502131
-0.29498714 0.094562106 0.5355072
-0.28475371 0.094624072 0.53496695
-0.27513337 0.094622031 0.5349592
-0.26512024 0.094727196 0.53554904
-0.25460061 0.094650567 0.53511733
-0.24504068 0.094673946 0.53525001
-0.23479055 0.095105276 0.53381914
-0.22516306 0.094953872 0.53433472
-0.21458246 0.094887517 0.53409815
-0.20464215 0.094983578 0.53360301
-0.19489552 0.095038362 0.53345102
-0.18487929 0.095057212 0.53397614
-0.17464067 0.095232576 0.53405708
-0.16501202 0.09518791 0.53427899
-0.15525576 0.095091954 0.53374988
-0.14511539 0.094746895 0.53278387
-0.13493618 0.095117867 0.5329386
-0.12494554 0.094979547 0.53310955
-0.11526145 0.094894834 0.53263384
-0.10501231 0.094909288 0.53271103
-0.094858684 0.095012374 0.5332948
-0.085261934 0.095002472 0.53322989
-0.074833587 0.094866209 0.53204364
-0.064663507 0.094920769 0.53277892
-0.055076193 0.094902955 0.53267401
-0.045446921 0.094791725 0.53205359
-0.035265401 0.095336296 0.53181148
-0.024876451 0.094881058 0.53206599
-0.015380936 0.094770566 0.53193301
-0.0050838972 0.094901778 0.53224802
0.0051135556 0.094841421 0.53233916
0.014596668 0.094849817 0.53189325
0.024907747 0.095409326 0.53168309
0.03513043 0.095221087 0.53183329
0.044694964 0.095384717 0.53154594
0.052570112 0.096602127 0.53101921
0.15746181 0.098780312 0.53145313
0.165647 0.095574416 0.53297198
0.17527531 0.094502576 0.53427035
0.18488654 0.094505154 0.53429091
0.19468957 0.094465025 0.53453237
0.20497686 0.094628088 0.53456587
0.21545251 0.094670475 0.53522956
0.22509207 0.094677627 0.53527296
0.23482946 0.094722301 0.53553069
0.24502306 0.094619207 0.53565967
0.25524479 0.094859555 0.5355342
0.26519346 0.094761506 0.53574747
0.27486297 0.094775066 0.53582394
0.28448159 0.094770648 0.5357933
0.29487267 0.094795577 0.53592634
0.30503157 0.094743095 0.53563774
0.31432149 0.094639808 0.53505868
0.32505122 0.094997726 0.5362075
0.33518443 0.094642416 0.53596634
0.34526992 0.094821267 0.53658956
0.3549712 0.095019408 0.53674996
0.36489514 0.094696932 0.5358023
0.37534705 0.09489353 0.53602004
0.38509557 0.094890743 0.53558403
0.3952885 0.094698556 0.53641039
0.40103412 0.094999082 0.53708935
-0.42096931 0.10237785 0.53962499
-0.41406721 0.1047524 0.53686512
-0.40508136 0.10517492 0.53558326
-0.39523938 0.10512901 0.53472412
-0.38460004 0.10481384 0.53479773
-0.37464622 0.10509278 0.53580803
-0.36521944 0.10515165 0.53611153
-0.35509413 0.10478173 0.53585482
-0.3449229 0.10523141 0.5358367
-0.33454153 0.10476064 0.53511554
-0.32525432 0.10522515 0.53558898
-0.31501564 0.1049399 0.53502685
-0.30493116 0.10476624 0.53485411
-0.2949661 0.10503861 0.5352416
-0.28501806 0.10507376 0.53528285
-0.27509975 0.10491302 0.53489286
-0.26497498 0.10498449 0.53525591
-0.25459713 0.10495602 0.53510946
-0.24466302 0.10482033 0.53442407
-0.23502386 0.10549565 0.53435194
-0.22471948 0.10500555 0.53454578
-0.21515027 0.10538665 0.53411418
-0.20506707 0.10523339 0.53340691
-0.19489561 0.10531661 0.53344899
-0.18531772 0.10532132 0.53347963
-0.175015 0.10530682 0.53340632
-0.16486458 0.10538384 0.5337984
-0.15512122 0.10528443 0.53329343
-0.14546724 0.10523666 0.53304863
-0.13506354 0.1051295 0.53251117
-0.12484428 0.10516335 0.53267598
-0.11525529 0.10515197 0.53261495
-0.10499925 0.1051533 0.53262717
-0.094745025 0.10516046 0.53266585
-0.085270599 0.10528236 0.53328329
-0.074867472 0.1051 0.53235495
-0.064649396 0.10516036 0.53266847
-0.055041421 0.10509062 0.53232139
-0.045442339 0.10503016 0.53200769
-0.035165507 0.10494406 0.53157139
-0.024961574 0.10508986 0.53230357
-0.015397192 0.10512792 0.5324949
-0.0051386161 0.10505386 0.53212267
0.0051112259 0.1050432 0.53206885
0.014673055 0.10501495 0.53192604
0.024922837 0.1050327 0.53201562
0.035145644 0.10496137 0.53165823
0.04475436 0.1050766 0.53223467
0.054971408 0.10501815 0.53193527
0.064609922 0.10574465 0.53153199
0.073743872 0.10792924 0.53102499
0.13797379 0.10851212 0.53065622
0.14591905 0.10661219 0.53155559
0.15477836 0.10530195 0.53291303
0.16533682 0.1052292 0.53454447
0.17539015 0.10485949 0.53462273
0.18497686 0.10484672 0.53455341
0.19477484 0.10496994 0.5343008
0.20500211 0.10461701 0.53424799
0.21535754 0.10493165 0.53499115
0.22499354 0.10494166 0.5350402
0.23476863 0.10506079 0.5347563
0.24497741 0.10496503 0.53516817
0.25513771 0.10484589 0.5354448
0.26497304 0.10499374 0.53530353
0.27476218 0.10505847 0.53562492
0.28450793 0.10510024 0.53584379
0.29445022 0.10477377 0.53650248
0.3050088 0.10464585 0.53665221
0.31508926 0.10451645 0.5363673
0.32476249 0.10440663 0.53623492
0.3348597 0.10451722 0.53665739
0.34488165 0.10495742 0.53608835
0.35495958 0.10517695 0.53624773
0.3649621 0.10495813 0.53701442
0.37538156 0.10502478 0.53688383
0.3848342 0.10483216 0.5361048
0.39472282 0.10502572 0.53590906
0.4004074 0.10517821 0.53625
-0.42022803 0.11553074 0.53956246
-0.41437876 0.11499801 0.53631461
-0.40497202 0.11523322 0.534971
-0.39508149 0.11535383 0.53552794
-0.38473663 0.11510729 0.53511083
-0.37496477 0.11557221 0.53581011
-0.36455539 0.11526805 0.53513527
-0.3553561 0.11514516 0.53556615
-0.34517092 0.11545192 0.53598213
-0.33468121 0.11538923 0.53496027
-0.32512373 0.11511149 0.5349977
-0.31484976 0.1151858 0.5347448
-0.30490327 0.11511451 0.53453922
-0.29527509 0.11514614 0.53443086
-0.28517109 0.1151237 0.5344643
-0.27486038 0.11511624 0.5344286
-0.26524398 0.11507031 0.53484571
-0.25521064 0.11523648 0.53433931
-0.24498791 0.11503053 0.5340277
-0.23524614 0.11520917 0.53485972
-0.22541311 0.11509739 0.53433925
-0.21507297 0.11507364 0.53422755
-0.20485815 0.11511497 0.53441572
-0.1948712 0.11489141 0.53338009
-0.18538269 0.11495434 0.53367084
-0.17503044 0.11490601 0.5334487
-0.16473585 0.11488994 0.53338009
-0.15507679 0.11484003 0.53314537
-0.14530687 0.11499685 0.53324753
-0.13486733 0.11456311 0.53243977
-0.12491295 0.11480153 0.53296679
-0.11531351 0.11478364 0.53288519
-0.10503093 0.11476175 0.53278124
-0.094719082 0.11470585 0.53252035
-0.085186712 0.11475714 0.5327602
-0.074874654 0.11468227 0.53241509
-0.064595595 0.11463773 0.53220665
-0.054903053 0.114601 0.53152764
-0.04528613 0.11475289 0.53174514
-0.035321999 0.11474063 0.53180611
-0.024950471 0.1146057 0.5320611
-0.015387328 0.11462332 0.53214288
-0.0051383274 0.11462965 0.53216976
0.0051072836 0.11521298 0.53171223
0.014516722 0.11489657 0.53194469
0.024928635 0.11462555 0.53214741
0.03529552 0.11481253 0.53155291
0.044545297 0.11482617 0.53162265
0.055012923 0.11499236 0.53177875
0.065247484 0.1146274 0.53216064
0.07491409 0.11477988 0.53286731
0.084687583 0.11494916 0.5323444
0.094664611 0.11624997 0.53224289
0.10492126 0.11672568 0.53236592
0.11464998 0.11662294 0.53221983
0.12519799 0.1161215 0.53272116
0.13518153 0.11484302 0.5327422
0.1446767 0.11475629 0.53275508
0.15434569 0.11482298 0.53306627
0.16499011 0.11508638 0.53429019
0.1751834 0.11502229 0.53399241
0.18487734 0.11508089 0.53426278
0.19494644 0.11495057 0.53366071
0.20527956 0.11498123 0.53379595
0.21512483 0.11511367 0.53441572
0.2246985 0.11509603 0.53433412
0.23510572 0.11513259 0.53521937
0.24494638 0.1152477 0.53429568
0.25498942 0.11514245 0.5345459
0.26487315 0.11526123 0.53509945
0.27490968 0.11543576 0.53591329
0.28507334 0.11537164 0.53561604
0.29575101 0.11495239 0.53603697
0.30533394 0.11480131 0.53616738
0.31500942 0.11481465 0.53622985
0.32492796 0.11498909 0.53637701
0.33496544 0.11480839 0.53621042
0.3451426 0.11508537 0.53653002
0.35483378 0.11548009 0.53573525
0.36510086 0.11500431 0.53570825
0.37494427 0.11483309 0.5357886
0.38526642 0.11525474 0.53607351
0.39452448 0.11531165 0.53585249
0.40090075 0.11565179 0.53691065
-0.42034161 0.12549591 0.53970832
-0.41427836 0.12454288 0.53592783
-0.40464973 0.12522317 0.53378069
-0.39520723 0.12506913 0.53555256
-0.38517141 0.12509531 0.53543627
-0.37476084 0.12478863 0.53524536
-0.36481971 0.12498115 0.53552306
-0.35498273 0.1249047 0.5352065
-0.34501714 0.12503003 0.5357433
-0.33467954 0.12502284 0.5357092
-0.32459414 0.12486385 0.5349133
-0.31524944 0.12529619 0.53482181
-0.30496845 0.12486801 0.53413236
-0.2949518 0.12484332 0.53461814
-0.28482345 0.12475095 0.53489
-0.27499697 0.12478695 0.53469384
-0.26495025 0.12493484 0.5339784
-0.25504801 0.124768 0.5346182
-0.24467003 0.12472726 0.53444117
-0.23522311 0.12481261 0.53480601
-0.22546957 0.12473433 0.53447205
-0.21500838 0.12463925 0.53406686
-0.20492159 0.12475957 0.53458422
-0.1949389 0.1248225 0.53393137
-0.18518355 0.12520222 0.53384697
-0.17476977 0.12441439 0.53377652
-0.16456211 0.12495155 0.53322929
-0.15507257 0.12510546 0.53312731
-0.14483273 0.12513055 0.5332402
-0.13463423 0.12511003 0.5335182
-0.12486664 0.12502116 0.53276569
-0.11527724 0.12500845 0.53271639
-0.10499804 0.12498618 0.53262109
-0.094787948 0.12505312 0.53290635
-0.085162111 0.12498022 0.53260046
-0.074831866 0.12486885 0.53211915
-0.064639233 0.12497518 0.53256923
-0.055078555 0.12498032 0.53221828
-0.045555282 0.1249803 0.53184032
-0.035046063 0.12494056 0.53177029
-0.024951067 0.1248595 0.53207821
-0.01537999 0.12481012 0.53187054
-0.0051365197 0.12484421 0.53201765
0.0051065311 0.12544011 0.53164285
0.01482145 0.1250387 0.53169101
0.024924221 0.1248485 0.53203332
0.035027802 0.12516023 0.53220528
0.044912182 0.1251796 0.53228766
0.054915667 0.12523295 0.53194284
0.065239094 0.12486339 0.53209364
0.074907698 0.12503365 0.53282148
0.084433042 0.12497882 0.5329569
0.094906501 0.12506634 0.53328389
0.10513156 0.12517564 0.53343308
0.11462682 0.12507187 0.53299099
0.12495314 0.12513024 0.5332461
0.13522194 0.12512891 0.53324103
0.14467429 0.12466259 0.53324032
0.15476969 0.12505214 0.53365749
0.1648664 0.12473972 0.53408551
0.17519416 0.12462912 0.53402293
0.18486361 0.12467584 0.53422189
0.19500233 0.12456385 0.53405458
0.20532975 0.12475559 0.53420997
0.21509928 0.12470693 0.53435457
0.22478886 0.12475285 0.53454864
0.23474452 0.12493569 0.53533673
0.24469142 0.12485793 0.53557599
0.25494927 0.12510842 0.53553009
0.26520744 0.12503971 0.53577805
0.27464291 0.12494834 0.53539282
0.28503838 0.12498671 0.5355491
0.29543301 0.12501892 0.53569394
0.3047632 0.12489507 0.53516579
0.31478021 0.12505321 0.5358392
0.32477331 0.12492635 0.53530139
0.33517632 0.12496175 0.53544384
0.34560373 0.12525201 0.53669125
0.35497293 0.12515356 0.53627032
0.36512277 0.12507318 0.53613633
0.37519494 0.12509936 0.53580248
0.38552767 0.12523711 0.53662503
0.39488262 0.12514506 0.53622699
0.40090075 0.12530258 0.53691071
-0.42096967 0.13355917 0.53962499
-0.41481042 0.13528898 0.53640532
-0.40454304 0.13492395 0.5342223
-0.39517286 0.13484126 0.53514016
-0.38490328 0.1351002 0.53476524
-0.37500817 0.13524741 0.53534478
-0.36521584 0.13489871 0.53582841
-0.35509479 0.13457207 0.535375
-0.34517756 0.13466513 0.53544575
-0.3352159 0.1351413 0.53491974
-0.32533079 0.13529266 0.53420365
-0.31463441 0.13507274 0.53367156
-0.30464157 0.13504645 0.53383797
-0.29477122 0.13465835 0.53370976
-0.28501153 0.13494605 0.53416389
-0.27530015 0.13527112 0.53474361
-0.26482329 0.13502856 0.53340334
-0.25511444 0.13471046 0.53390676
-0.24490562 0.13476954 0.53345913
-0.23522189 0.13512565 0.53417152
-0.22532354 0.1349425 0.5341295
-0.21528132 0.13471299 0.53394592
-0.20481133 0.13492416 0.53334385
-0.19488487 0.13485096 0.53306931
-0.1849605 0.13508607 0.53284323
-0.17509733 0.1348206 0.53365237
-0.16479835 0.13516393 0.53314954
-0.15507992 0.13538046 0.53315306
-0.14484133 0.13537851 0.5329476
-0.13467222 0.13524304 0.53324759
-0.12496764 0.13539086 0.53319657
-0.11520371 0.13518393 0.53237754
-0.10500344 0.13525295 0.53264725
-0.094789751 0.13532093 0.5329209
-0.085202567 0.13530348 0.53284687
-0.0748666 0.13518111 0.53236824
-0.064618826 0.1351867 0.53239536
-0.055032376 0.13515282 0.53226018
-0.045440529 0.13508247 0.53197968
-0.035200227 0.1351082 0.53208041
-0.024938393 0.13504183 0.53182405
-0.015376533 0.13501938 0.53173214
-0.0051328107 0.1350034 0.53166968
0.0051092589 0.13505059 0.53185457
0.014675789 0.13509642 0.53203321
0.024932653 0.13514358 0.5322212
0.03516905 0.13508829 0.53200763
0.04475826 0.1351608 0.53228831
0.054988831 0.13511312 0.53209817
0.065285921 0.13520736 0.53246933
0.074879564 0.13524777 0.53263265
0.085020721 0.13526061 0.53258878
0.095092744 0.13502397 0.53268743
0.10499045 0.13527083 0.53271937
0.11452855 0.13522288 0.53253073
0.12482562 0.13526869 0.53270978
0.13494734 0.13512681 0.53215557
0.14505072 0.13500036 0.53365737
0.15465854 0.13512996 0.53363883
0.16526067 0.13508826 0.53392375
0.1751689 0.13489686 0.53394639
0.18479727 0.13491811 0.53403342
0.19487862 0.13501404 0.53389716
0.20529981 0.13485309 0.53434038
0.21516706 0.13504101 0.53451991
0.22495876 0.13487943 0.53495532
0.23452772 0.13507782 0.53501368
0.24513279 0.13485001 0.53538126
0.25521848 0.13448285 0.53502804
0.26521984 0.13474452 0.53563499
0.27440244 0.13514203 0.53492415
0.28519863 0.13468929 0.53585041
0.29523 0.13500677 0.53509498
0.3047649 0.13496669 0.53530437
0.31466821 0.13532464 0.53564954
0.32464492 0.13455965 0.53586519
0.3351557 0.1349128 0.53622919
0.34538063 0.13481222 0.53634441
0.3552146 0.13462541 0.53600931
0.36525235 0.13523398 0.53515673
0.37497827 0.13489138 0.53529561
0.38513601 0.13474661 0.53608167
0.39483386 0.13476631 0.53616059
0.40022069 0.13472681 0.53599995
-0.413315 0.1443992 0.5361433
-0.40508589 0.14513212 0.53577799
-0.39497659 0.1454667 0.5347771
-0.38522479 0.14527631 0.53493655
-0.37497938 0.14538002 0.53456903
-0.3650535 0.14494975 0.53505832
-0.3553701 0.14499135 0.53579015
-0.34518987 0.1450159 0.53490227
-0.33510748 0.14523007 0.53500009
-0.32475385 0.14533289 0.53440988
-0.3151283 0.14557767 0.53422606
-0.30503008 0.14488433 0.53334802
-0.29482257 0.14488611 0.53275239
-0.28488684 0.14508793 0.53321767
-0.27488804 0.14500016 0.53386772
-0.26439941 0.14484701 0.53271186
-0.25538456 0.14516534 0.53388524
-0.24521439 0.14497371 0.5328775
-0.23529302 0.14488183 0.5334096
-0.22515044 0.14512892 0.53346252
-0.2152946 0.14522263 0.5336054
-0.20482451 0.1448008 0.53300929
-0.19478177 0.14496045 0.53313535
-0.18504803 0.1448434 0.53270662
-0.1749866 0.14500992 0.53331697
-0.16460298 0.14491071 0.53295153
-0.15488715 0.14478396 0.53248984
-0.14483874 0.14499545 0.53326339
-0.1345578 0.14498135 0.53321427
-0.12477379 0.14475082 0.53236985
-0.11523999 0.14479996 0.53254837
-0.10503257 0.14486709 0.53279692
-0.094758697 0.14485177 0.53273207
-0.085081935 0.14468081 0.53210974
-0.074866101 0.14474629 0.53234828
-0.064580716 0.14467597 0.53208673
-0.055007014 0.14465633 0.53201532
-0.04544678 0.14466809 0.53205866
-0.035195775 0.14465436 0.53200901
-0.024936261 0.14458972 0.53177041
-0.015384917 0.1446698 0.53206378
-0.0051363898 0.14464295 0.53196418
0.0051087006 0.1446045 0.5318265
0.014668687 0.14458786 0.53176534
0.024921564 0.144646 0.53197759
0.035159007 0.14461516 0.53186476
0.044731103 0.14464141 0.5319643
0.054994792 0.14469193 0.53214961
0.065255329 0.14471155 0.53222448
0.074828334 0.14472251 0.53226292
0.085110299 0.14477456 0.53245085
0.095385902 0.144803 0.53255618
0.10500205 0.14486258 0.53277802
0.11491145 0.14516214 0.53223872
0.12512633 0.14472213 0.53283256
0.13497914 0.14472829 0.53228062
0.14479555 0.14497398 0.53318882
0.15458436 0.14514519 0.53351504
0.16500492 0.14513591 0.53405672
0.17521578 0.1452194 0.53408921
0.18470982 0.1451353 0.53378314
0.19477205 0.14497931 0.53366667
0.20530777 0.14544679 0.53442651
0.21525922 0.14540136 0.53475249
0.22470981 0.14497617 0.53436315
0.23488423 0.14529532 0.53455549
0.24503841 0.14485438 0.53469735
0.25522608 0.14479099 0.53504246
0.26477808 0.14488412 0.53506136
0.27458945 0.14553787 0.53467059
0.2851471 0.14480847 0.53545213
0.29473519 0.14507861 0.53412062
0.30552104 0.14491121 0.53461134
0.31498119 0.14513952 0.53446668
0.32493097 0.14530158 0.53584152
0.33491883 0.14481342 0.5357582
0.3449564 0.14496405 0.53568518
0.35485625 0.14501901 0.53620672
0.3651343 0.14499351 0.53556776
0.37487611 0.14530618 0.53461713
0.38510254 0.14506069 0.53603339
0.39476845 0.14507331 0.53546107
